# .PCD v0.7 - Point Cloud Data file format
VERSION 0.7
FIELDS x y z rgba
SIZE 4 4 4 4
TYPE F F F U
COUNT 1 1 1 1
WIDTH 1092
HEIGHT 1
VIEWPOINT 0 0 0 1 0 0 0
POINTS 1092
DATA ascii
0.013577814 0.0043202136 0.70400006 2172718
0.015429335 0.0055545601 0.70400006 2369089
0.011726294 0.0074060801 0.70400006 1909289
0.013577813 0.0074060801 0.70400006 2304049
0.015429335 0.0074060801 0.70400006 2304325
0.014194987 0.0098747741 0.70400006 2762536
0.016046507 0.0098747741 0.70400006 2565422
0.014194987 0.01666368 0.70400006 2172199
0.016663682 0.01666368 0.70400006 2369068
0.019749548 0.016663682 0.70400006 2304041
0.016910549 0.019626115 0.70400006 2106408
0.019749548 0.019749548 0.70400006 2172710
0.01666368 0.02221824 0.70400006 2105376
0.019749548 0.022218242 0.70400006 2172198
0.02221824 0.02221824 0.70400006 2041131
0.01748658 0.024481207 0.70400006 2171172
0.019749548 0.025304107 0.70400006 2500389
0.022218242 0.025304109 0.70400006 2237986
0.024686933 0.025304107 0.70400006 2106918
0.020366721 0.027772801 0.70400006 2762020
0.022218242 0.028389974 0.70400006 2631217
0.025304109 0.028389975 0.70400006 2172212
0.022423966 0.030858666 0.70400006 2172203
0.025304109 0.031167254 0.70400006 2041135
0.028389974 0.031167254 0.70400006 1976113
0.02555098 0.034438275 0.70400006 2696490
0.028389974 0.034561709 0.70400006 2565931
0.026127005 0.036824673 0.70400006 2564904
0.028513407 0.037400704 0.70400006 2236966
0.031475842 0.037647575 0.70400006 1974831
0.029007146 0.040116265 0.70400006 2041384
0.031475842 0.040733442 0.70400006 1843499
0.030858668 0.042584963 0.70400006 1711913
0.0012396066 -0.028510952 0.70700002 2829101
0.0030990166 -0.02789115 0.70700002 2764851
0.0012396066 -0.025411936 0.70700002 2238762
0.0041615367 -0.025057763 0.70700008 2173499
-0.00061980332 -0.022312921 0.70700002 1712935
0.0012396066 -0.022312921 0.70700002 1976870
0.004338623 -0.022312919 0.70700002 2174519
0.0012396066 -0.019627105 0.70700002 1712926
0.0043386235 -0.019627104 0.70700002 2370617
0.0014462076 -0.01694129 0.70700002 1449760
0.0043386235 -0.016982611 0.7069999 2434861
0.0070244377 -0.016734689 0.70700002 2500400
0.004956454 -0.01363107 0.70675004 2434862
0.0074352291 -0.01363107 0.70675004 2960178
0.0055755996 -0.010531104 0.70666671 2369061
0.0074306265 -0.010526136 0.70633334 2435112
0.0055782297 -0.0074376399 0.70700002 2302757
0.007431942 -0.0074323802 0.70650005 2565417
0.0055782297 -0.0043386235 0.70700002 1449504
0.0074287266 -0.0043338016 0.70616674 2107175
0.0055782297 -0.0012396066 0.70700002 1778207
0.0074271196 -0.0012378532 0.70600003 1909794
0.010521754 -0.0012378533 0.70600003 2173737
-0.02603174 0.00185941 0.70700002 2238284
0.0055782297 0.00061980332 0.70700002 1778207
0.0074323802 0.0012391682 0.70649999 1777956
0.010521754 0.0012378533 0.70600003 2369064
0.013616387 0.0012378533 0.70600003 1975338
-0.030370364 0.0049584266 0.70700002 2304564
-0.028379101 0.0045849672 0.70680004 2304554
0.0099050188 0.004333802 0.70616674 2106149
-0.030990165 0.0074376399 0.70700002 2237487
0.010118487 0.0072278245 0.70666671 1777701
-0.030783564 0.0097102523 0.70700002 1975341
0.011351957 0.0097009009 0.70633334 2105376
0.01299746 0.0099028265 0.70600003 2433828
-0.036568396 0.017354492 0.70700002 2171694
-0.034708988 0.016734689 0.70700002 2171953
-0.031609967 0.016734689 0.70700002 1777451
-0.036981598 0.020040309 0.70700002 2106411
-0.034708988 0.019833706 0.70700002 2369082
-0.040039293 0.022436881 0.70700002 1646637
-0.037188202 0.022312921 0.70700002 1909544
-0.040287215 0.024792133 0.70700002 1843764
-0.037188198 0.024792133 0.70700002 2105644
0.027851699 0.038992379 0.70600003 2041636
0.02826432 0.041055471 0.70600003 2566192
0.028480491 0.043340426 0.70625007 2500138
-0.0074481601 -0.042826921 0.708 2832192
-0.0074586803 -0.041021861 0.70899999 2896961
-0.0043570334 -0.041080598 0.71000004 2896188
-0.0074691996 -0.037346002 0.71000004 2764601
-0.0043570334 -0.037346002 0.71000004 2633017
-0.0012448666 -0.037346002 0.71000004 2567224
-0.013693534 -0.034233835 0.71000004 2499882
-0.011826233 -0.034233835 0.71000004 2829099
-0.0068467669 -0.0354787 0.71000004 2699057
-0.0043570329 -0.034856267 0.71000004 2106925
-0.0012448666 -0.034856267 0.71000004 2632241
-0.013693534 -0.0317441 0.71000004 2368296
-0.011826233 -0.0317441 0.71000004 2631978
-0.0036101132 -0.031993072 0.71000004 2171942
-0.0012445744 -0.031729784 0.70966673 2500642
0.0012425288 -0.031685654 0.70866662 3093040
-0.015560833 -0.028631933 0.71000004 1712683
-0.013693534 -0.028631933 0.71000004 2237737
-0.011826233 -0.028631933 0.71000004 2172713
-0.0031121667 -0.028631933 0.71000004 2237480
-0.001242675 -0.028571881 0.70850003 2239009
-0.01587205 -0.025208551 0.71000004 2172719
-0.013693534 -0.025519768 0.71000004 2107187
-0.011826233 -0.025519768 0.71000004 1909544
-0.0031121667 -0.026764635 0.71000004 1907745
-0.0012422367 -0.025459275 0.70833331 1515554
-0.018465521 -0.022200122 0.71000004 1710116
-0.016172308 -0.02239226 0.70950001 2894387
-0.013683452 -0.02239226 0.70950001 2500390
-0.011826233 -0.022407601 0.71000004 1515040
-0.01974811 -0.019182263 0.71000004 1513503
-0.016609106 -0.019558651 0.70825005 2369842
-0.019295434 -0.016390746 0.71000004 2106664
-0.016463509 -0.017187342 0.70866674 2501168
-0.019917866 -0.013693534 0.71000004 1713190
-0.016772971 -0.013667817 0.70866662 1778991
0.0031033999 -0.013654959 0.708 1843752
-0.024689855 -0.0097514568 0.71000004 989209
-0.022615077 -0.0097514568 0.71000004 1712164
-0.019295434 -0.010581367 0.71000004 2434602
0.0037240796 -0.01055156 0.708 1909796
-0.025508368 -0.0074659851 0.70966673 1053208
-0.022391383 -0.0074643781 0.70950001 2106923
-0.019544406 -0.0075936862 0.71000004 2039850
-0.0280095 -0.0031121667 0.71000004 1315106
-0.025456257 -0.0043465137 0.70822227 1711398
-0.022375165 -0.0043508965 0.70900005 2239020
-0.020042352 -0.0046060071 0.71000004 1515558
-0.028398156 -0.0010368045 0.70933336 1514282
-0.025447881 -0.00124136 0.708 2172713
-0.022375163 -0.0012431133 0.70899999 1909549
-0.028592484 0.0012431133 0.70899999 1711920
-0.02513754 0.00093101995 0.708 2107447
-0.02917196 0.0031033999 0.708 2238506
-0.032896042 0.0074481601 0.708 1447720
0.0093101999 0.00806884 0.708 1319971
-0.032482255 0.010137773 0.708 1909805
-0.037551139 0.016448019 0.708 1647412
-0.040538315 0.019603018 0.70828575 1450794
-0.037861478 0.01924108 0.708 1975085
-0.04347872 0.022359822 0.70850003 1515817
-0.041585557 0.021723799 0.708 1319472
-0.046682499 0.025519766 0.71000004 1844004
-0.043468345 0.025460443 0.70833331 1843499
-0.040344197 0.026689239 0.708 1843499
-0.049172234 0.029254368 0.71000004 1252384
-0.046682503 0.028631933 0.71000004 1580838
-0.04354009 0.028612208 0.70950001 1842743
-0.040344197 0.02855128 0.708 1909296
-0.049705748 0.031210586 0.71000004 1252125
-0.046682503 0.031432878 0.71000004 1384481
-0.043570332 0.031432882 0.71000004 1581608
-0.040458169 0.031432878 0.71000004 2238251
-0.049172234 0.0354787 0.71000004 1186840
-0.046682503 0.034856267 0.71000004 1646625
-0.043570336 0.034856267 0.71000004 2106924
-0.040458169 0.034856267 0.71000004 2172205
-0.049172234 0.036723569 0.71000004 1186590
-0.046682503 0.037346002 0.71000004 1712673
-0.043570336 0.037346002 0.71000004 2302503
-0.04606007 0.040458169 0.71000004 2107427
-0.043570336 0.040458165 0.71000004 2171952
-0.041080598 0.040458169 0.71000004 2040619
-0.04606007 0.043570332 0.71000004 2434343
-0.043777812 0.043362856 0.71000004 2434609
-0.010596271 -0.037398599 0.71100003 2830895
-0.01371282 -0.035528667 0.71100003 1778226
-0.010240093 -0.034460135 0.71100003 3026479
-0.0076043815 -0.034032725 0.71100003 2632238
-0.0056097899 -0.033035431 0.71100003 2238506
-0.0099729598 -0.031165499 0.71100003 2500403
-0.00749024 -0.031208459 0.71200007 2303794
-0.00519425 -0.030957729 0.71100003 2238246
-0.01682937 -0.028672259 0.71100003 1383718
-0.00998611 -0.028712586 0.71200001 2041131
-0.0081258239 -0.029377976 0.71300006 2238005
-0.0043631699 -0.028672259 0.71100003 2106151
-0.01682937 -0.026179019 0.71100003 1646373
-0.00998611 -0.025591655 0.71200007 1777701
-0.00353209 -0.025555709 0.71100003 1841952
-0.022439159 -0.01371282 0.71100003 1056280
-0.022231391 -0.01142735 0.71100003 1515039
-0.050176457 0.034282047 0.71100003 1119772
-0.050072569 0.03760637 0.71100003 1186588
-0.047994871 0.040515151 0.71100003 1647385
-0.047994871 0.043631703 0.71100003 1976104
-0.046748251 0.046748251 0.71100003 2369065
-0.043631703 0.046748251 0.71100003 2368814
-0.046748251 0.049864799 0.71100003 2434090
-0.046748251 0.052358035 0.71100003 2237994
-0.007302634 -0.028584594 0.71400005 2370088
-0.0056334604 -0.02879324 0.71400005 2040865
-0.046528209 0.056543246 0.71400005 1976356
0.015120747 0.013269227 0.70400006 2368810
0.016663682 0.01666368 0.70400006 2369068
-0.028398156 -0.0010368045 0.70933336 1514282
0.0039934367 0.0018359595 0.70625001 1843500
0.0025868246 -0.00048282405 0.70675004 1711394
0.014621923 0.011936986 0.70633334 1843752
0.024686933 0.025304107 0.70400006 2106918
0.021292482 0.028081387 0.70400006 2696490
0.019749548 0.025304107 0.70400006 2500389
0.016376134 0.018376688 0.70600003 1909031
0.01748658 0.024481207 0.70400006 2171172
0.026127005 0.036824673 0.70400006 2564904
0.029994626 0.037524141 0.70400006 2105898
0.031475838 0.03888192 0.70400006 1844012
0.0030990166 -0.02789115 0.70700002 2764851
0.0012396066 -0.025411936 0.70700002 2238762
0.00030990166 -0.022312921 0.70700002 1844774
0.004338623 -0.022312919 0.70700002 2174519
0.0040287217 -0.020970013 0.70700002 1450531
0.0055782301 -0.019627104 0.70700002 2239029
0.0028924155 -0.016961951 0.70699996 1909542
0.0059904456 -0.01518288 0.70687503 2434863
0.0074359593 -0.012392681 0.70680553 2499881
0.0086713294 0.004026311 0.70658338 1843491
0.013830293 0.012539255 0.71266663 1580577
-0.038802892 0.016616214 0.70857143 1581617
-0.024876123 -0.0012995539 0.71109527 1778217
0.0062737186 -0.0091843233 0.71299994 1448992
-0.045126416 0.031432882 0.71000004 1450276
-0.032896042 0.0074481601 0.708 1447720
0.0089770667 0.0012385107 0.70625001 2040614
-0.029745627 0.0074364347 0.70687503 2303788
0.02555098 0.034438275 0.70400006 2696490
0.0074306265 -0.010526136 0.70633334 2435112
0.0075925905 -0.0088321976 0.70700002 2171430
0.0055782297 0.00061980332 0.70700002 1778207
0.0093101999 0.00806884 0.708 1319971
-0.040344197 0.02855128 0.708 1909296
0.0065034782 -0.0043362128 0.70658338 1778211
0.0074271196 -0.0012378532 0.70600003 1909794
-0.020969026 -0.0069801663 0.71270835 1645846
0.010951758 0.0084639248 0.70955563 1515042
-0.042325467 0.040458165 0.71000004 2106157
0.000211715 -0.031083969 0.71150005 1712669
0.015473166 0.0099028265 0.70600003 2303270
-0.0043631704 -0.037710257 0.71100003 2370345
-0.008922237 -0.03424643 0.71100003 2829358
-0.00046397583 -0.03352702 0.71150005 1909798
-0.01340774 -0.025885336 0.71150005 1711909
0.0022911686 -0.025886212 0.71150005 1514005
-0.0062550171 -0.024053544 0.71266675 1382932
0.0034356569 -0.022454502 0.71150005 1317404
0.011702185 0.0045236 0.71175003 1252380
-0.01371282 -0.035528667 0.71100003 1778226
-0.01682937 -0.028672259 0.71100003 1383718
-0.015186204 -0.022678781 0.71200001 1382940
-0.029072916 0.0086220549 0.71322221 1383193
-0.024010148 -0.0015591517 0.71150005 987934
0.0049931426 -0.016464852 0.71140003 1252127
-0.050176457 0.034282047 0.71100003 1119772
-0.01890707 -0.011011811 0.71100003 1449506
-0.022077681 -0.0076011382 0.71266675 1184024
0.018075991 0.015894406 0.71100003 1186844
-0.043068878 0.031001272 0.71200007 1054494
-0.046748251 0.046748251 0.71100003 2369065
-0.043631703 0.046748251 0.71100003 2368814
-0.045189977 0.049864799 0.71100003 2368558
-0.048064128 0.05243168 0.71200001 2237223
-0.048965342 0.040543646 0.71150005 1384216
-0.032743502 0.01392848 0.71250004 2897199
-0.0070486199 -0.03584668 0.71425009 1514532
-0.007302634 -0.028584594 0.71400005 2370088
0.0012575784 -0.028813843 0.71450007 1646624
-0.023060717 -0.0088408915 0.71233338 1383454
-0.021112544 -0.0029072464 0.71075004 1777705
-0.029491283 0.0069166077 0.71066666 1514789
0.01531639 0.011889355 0.71033335 1317920
0.017500456 0.015635569 0.71025002 1646369
0.019891128 0.018594867 0.71100003 1646626
0.010969512 0.0015058937 0.71200001 1647144
0.0093790181 0.002663387 0.71200001 1515045
-0.030028719 0.012242139 0.71141666 1580836
-0.035840981 0.018074676 0.71275008 1514015
-0.038613748 0.022374902 0.70700002 1777962
0.031913407 0.041829601 0.70687503 1909289
-0.013693534 -0.028631933 0.71000004 2237737
-0.0074691996 -0.028631933 0.71000004 2172200
-0.011826233 -0.025519768 0.71000004 1909544
-0.016172308 -0.02239226 0.70950001 2894387
-0.0068467665 -0.022407601 0.71000004 1317918
0.00449993 -0.017223869 0.708 1646881
0.0068316441 -0.013659562 0.70824999 1711655
-0.024689855 -0.0097514568 0.71000004 989209
-0.028793242 0.0043815803 0.71400005 988959
0.0061222021 -0.012544881 0.71174997 2107182
-0.035979092 0.014949103 0.71229166 1251871
-0.025730809 -0.0031362437 0.71133333 2238502
-0.045189977 0.046748251 0.71100003 2368811
0.010969512 0.0015058937 0.71200001 1647144
-0.038802892 0.016616214 0.70857143 1581617
0.0074359593 -0.012392681 0.70680553 2499881
0.026127005 0.036824673 0.70400006 2564904
-0.0030225278 -0.028699219 0.71425009 1975588
0.0025868246 -0.00048282405 0.70675004 1711394
-0.032743502 0.01392848 0.71250004 2897199
0.0055782297 0.00061980332 0.70700002 1778207
0.024686933 0.025304107 0.70400006 2106918
0.021292482 0.028081387 0.70400006 2696490
-0.016172308 -0.02239226 0.70950001 2894387
-0.0097606424 -0.020784069 0.70981252 1449246
-0.026007192 0.0043339483 0.7063334 2107189
-0.02850109 0.0074352291 0.70675004 2370345
-0.02601333 0.0074328184 0.70650005 1122596
-0.028717553 0.0097102523 0.70700002 1975335
-0.026651543 0.0092970496 0.70700002 1778207
-0.032436375 0.019627104 0.70700002 1843254
-0.034708988 0.022312921 0.70700002 1909293
-0.032849576 0.022312921 0.70700002 1843501
-0.035328787 0.024792133 0.70700002 2433839
-0.016805701 -0.010581367 0.71000004 1449768
-0.017379038 -0.0068274797 0.708 1382177
-0.017379038 -0.0055861198 0.708 1120292
-0.020540299 -0.0012448666 0.71000004 1382446
-0.022571826 0.0010350511 0.70866662 1515043
-0.024206519 0.0043447595 0.708 1188138
-0.023030033 0.0043570334 0.71000004 1056295
-0.024274901 0.0068467669 0.71000004 1449254
-0.027930599 0.01055156 0.708 1843749
-0.025861666 0.010137773 0.708 1186327
-0.02855128 0.016758358 0.708 1513762
-0.026123352 0.016172308 0.70950001 1383461
-0.030827105 0.020068653 0.708 1514534
-0.028571006 0.019876225 0.70849997 1318170
-0.031055478 0.022360699 0.70850003 1384232
-0.037240796 0.026689239 0.708 2105901
-0.034471847 0.025777068 0.70849997 2301737
-0.037240796 0.02855128 0.708 1974586
-0.037345998 0.031432882 0.71000004 2105642
-0.037553478 0.034648791 0.71000004 1449505
-0.040707141 0.037221514 0.71000004 2105640
-0.037968434 0.036723569 0.71000004 1973538
-0.041703034 0.0429479 0.71000004 2302253
-0.015582751 -0.010596271 0.71100003 1383974
-0.016027512 -0.0077015166 0.71233338 1512989
-0.018491529 -0.00353209 0.71100003 858139
-0.018724725 -0.0012483733 0.71200007 923422
-0.021815849 0.0018699301 0.71100003 1252132
-0.020191096 0.0010411878 0.71233338 659991
-0.021877218 0.0037503801 0.71300006 1252384
-0.024309089 0.0081030298 0.71100003 794142
-0.024309089 0.0099729598 0.71100003 858909
-0.036775291 0.035528667 0.71100003 1776411
-0.039268531 0.038021911 0.71100003 2039587
-0.039268531 0.040515151 0.71100003 1908524
-0.043008391 0.044255011 0.71100003 2106927
-0.040287916 0.043781262 0.71140003 1974566
-0.040698592 0.046624858 0.71150005 1844771
-0.043631703 0.049864799 0.71100003 2368818
-0.040832855 0.049574625 0.71220005 1777955
-0.04369219 0.05243168 0.71200001 2303798
-0.041254181 0.052505322 0.71300006 2171944
-0.041879244 0.054380514 0.71300006 2041636
-0.039434221 0.050075203 0.71400005 1843748
-0.039489448 0.052653477 0.71500003 2040356
-0.043815799 0.056960542 0.71400005 2107177
-0.040717661 0.055752736 0.71457148 1712418
-0.043463729 0.058996864 0.71439999 2041130
-0.040362027 0.058557536 0.71566671 1712164
-0.038289294 0.057120088 0.71600002 1646626
-0.043229014 0.061399397 0.71466666 2303270
-0.040172372 0.061513945 0.71600002 1778468
-0.04331084 0.064652413 0.71600002 1909534
-0.040800065 0.064652413 0.71600002 1843996
-0.03776592 0.061685778 0.71800005 1778217
-0.03959991 0.064742714 0.71700001 1778726
-0.038396247 0.06420444 0.71800005 1713190
-0.038449723 0.066183947 0.71900004 1975591
-0.04028371 0.070498027 0.71800005 2238506
-0.038449723 0.069965892 0.71900004 2238506
-0.040340692 0.073117509 0.71900004 2304301
-0.038449723 0.073117509 0.71900004 2369840
-0.040550802 0.075428694 0.71900004 2369065
-0.037661601 0.070904799 0.72000003 2239278
-0.035395417 0.070792586 0.72100008 1648167
-0.0372408 0.073219195 0.72000003 2172466
-0.034779117 0.073354796 0.72133332 2040876
-0.040270559 0.077385113 0.72000003 2303272
-0.037872002 0.0766908 0.72000003 2369325
-0.034891173 0.076740049 0.72127283 2172464
-0.037615765 0.07947284 0.72028583 2238256
-0.034629211 0.079380855 0.7215001 2171963
-0.037274111 0.082131974 0.72066671 2304302
-0.034179479 0.082283944 0.72200006 2237485
-0.037344247 0.085448712 0.72200006 2434858
-0.034179479 0.085448705 0.72200006 2696497
-0.03228062 0.085448705 0.72200006 2302491
-0.034179479 0.088613465 0.72200006 2368049
-0.03228062 0.088613465 0.72200006 2369322
-0.018803624 0.016690856 0.72300005 2434089
-0.016737027 0.016313305 0.72500008 2106927
-0.019522928 0.019841596 0.72425002 1975594
-0.017160749 0.0190675 0.72500002 2433839
-0.020531239 0.022648683 0.72433335 1975339
-0.020974251 0.031567305 0.72500008 2502704
-0.029363949 0.055041514 0.72500002 2370095
-0.031779166 0.058473665 0.72500002 2238513
-0.032384943 0.061593723 0.72433335 2303536
-0.031734459 0.064740084 0.72400004 2236964
-0.032414749 0.066736244 0.72500002 2236710
-0.033592992 0.070988961 0.72300005 1517092
-0.031734459 0.073625974 0.72400004 1909292
-0.033592992 0.077961095 0.72300005 2237503
-0.031931415 0.076763563 0.72366667 2172201
-0.031586736 0.079365298 0.72425002 1975339
-0.029872416 0.080719084 0.72500002 2041384
-0.031734459 0.082511865 0.72400004 2106151
-0.02860125 0.082625829 0.72499996 2172973
-0.031086309 0.085644782 0.72366667 2500126
-0.02860125 0.08516816 0.72499996 2434606
-0.025423333 0.085168168 0.72500002 2566972
-0.031100627 0.088859811 0.72400004 2435116
-0.02860125 0.088346086 0.72499996 2566194
-0.025550449 0.08809185 0.72500002 2763831
-0.03422682 0.09127152 0.72300005 2170917
-0.031734459 0.091397755 0.72399998 2434089
-0.028855482 0.091396883 0.72500002 2369072
-0.031749357 0.094615422 0.72433335 2105377
-0.029236831 0.094701916 0.72499996 2106160
-0.032414749 0.097244248 0.72500002 1841952
-0.012534288 0.0078604864 0.72700006 2499877
-0.010197387 0.0076480405 0.72700006 2631209
-0.013384069 0.010197387 0.72700006 2041383
-0.015933417 0.01720809 0.72700006 2238256
-0.013402482 0.016593546 0.7280001 2239544
-0.010211414 0.016593546 0.72800004 2961983
-0.0076585598 0.016593548 0.72800004 2764606
-0.015933417 0.019120101 0.72700006 2631218
-0.013402482 0.0191464 0.7280001 2501173
-0.010211414 0.0191464 0.72800004 2961212
-0.0076585603 0.0191464 0.72800004 2764862
-0.018907657 0.023156567 0.72700006 2238508
-0.016578062 0.022317305 0.72733337 2828849
-0.013402481 0.022337466 0.7280001 2633011
-0.010211413 0.022337466 0.7280001 2502452
-0.019120101 0.025493467 0.72700006 2238763
-0.016587628 0.025519986 0.72775006 2764854
-0.013402481 0.025528535 0.7280001 2699828
-0.010211414 0.025528533 0.72800004 2700092
-0.019128574 0.028693592 0.72733337 2437438
-0.016593546 0.028719598 0.7280001 2830390
-0.013562034 0.028560048 0.7280001 2962740
-0.010211413 0.028719598 0.7280001 3093827
-0.019132812 0.031676162 0.72750002 2764339
-0.016593546 0.031697929 0.7280001 2764849
-0.014678908 0.031697929 0.72799999 2764853
-0.02103211 0.035053518 0.72700006 2699057
-0.019139607 0.034451902 0.72775006 2829366
-0.016593546 0.034463521 0.72800004 2633536
-0.014678908 0.034463521 0.72800004 2437433
-0.021553552 0.037878841 0.72740006 2897470
-0.019465506 0.037335481 0.72800004 3160130
-0.016593546 0.03637816 0.72800004 2437180
-0.014678908 0.03637816 0.72800004 2896187
-0.022316428 0.040808249 0.72733337 3226178
-0.024856132 0.043338895 0.72700006 2767178
-0.022959463 0.043368701 0.72750002 3293513
-0.025493467 0.046525579 0.72700006 3226685
-0.022959463 0.046557575 0.72750002 3293246
-0.027405476 0.050349601 0.72700006 1976886
-0.025493467 0.049712263 0.72700006 2765115
-0.022967571 0.049763761 0.72775006 3423296
-0.027405476 0.052261606 0.72700006 2174774
-0.025493469 0.052261606 0.72700006 3095101
-0.022975679 0.052333497 0.72800004 3554367
-0.027724145 0.055766962 0.72700006 2765618
-0.025493467 0.055448294 0.72700006 3028792
-0.022975678 0.055524562 0.7280001 3357504
-0.028680151 0.058634978 0.72700006 2174254
-0.025519548 0.058695685 0.72775006 3159862
-0.022975679 0.058715627 0.72800004 3488833
-0.031229496 0.061184321 0.72700006 2040878
-0.028686434 0.061198492 0.72716671 2239277
-0.025528533 0.061268479 0.72800004 2896943
-0.023613892 0.061268479 0.72800004 3488823
-0.031229496 0.063096337 0.72700006 2236460
-0.028692715 0.064400524 0.72733343 2041133
-0.025528533 0.063183121 0.72800004 2831149
-0.023613892 0.063183121 0.72800004 2897195
-0.031229496 0.066920355 0.72700006 2236710
-0.028692717 0.066951036 0.72733337 2041134
-0.031229496 0.070744373 0.72700006 1909542
-0.028705865 0.070809253 0.72766668 1845282
-0.026166746 0.070841685 0.72800004 2305051
-0.031229496 0.072019048 0.72700006 1909542
-0.028705865 0.073360927 0.72766674 1844518
-0.026166746 0.073394537 0.72799999 2107940
-0.028705865 0.076550536 0.7276668 1910057
-0.025528533 0.076585606 0.72800004 1911083
-0.028594485 0.0793183 0.72714299 1909795
-0.025591459 0.079326645 0.7277779 1844264
-0.023613892 0.079776667 0.72800004 2306094
-0.025372839 0.08249364 0.72720003 2501942
-0.023090698 0.082538866 0.7276001 2698290
-0.022316428 0.085442275 0.72733337 2960700
-0.024856132 0.089864478 0.72700006 2567728
-0.022316428 0.088630423 0.72733343 2632758
-0.019274043 0.088966936 0.72800004 2501939
-0.027405476 0.09241382 0.72700006 1779502
-0.025493467 0.091776483 0.72700006 2108721
-0.022316428 0.091818564 0.72733337 2240562
-0.0191464 0.091902725 0.72800004 2436910
-0.016593546 0.091902718 0.72800004 2567475
-0.010211414 0.092540935 0.72800004 2370869
-0.0082967738 0.092540935 0.72800004 1911088
-0.027405476 0.094325826 0.72700006 2106924
-0.025493469 0.094325826 0.72700006 2304299
-0.022316428 0.094369076 0.72733337 2304298
-0.0191464 0.09445557 0.72800004 2501935
-0.016593546 0.09445557 0.72800004 2567224
-0.013402482 0.09445557 0.7280001 2370861
-0.010211414 0.09445557 0.72800004 2501935
-0.0076585598 0.09445557 0.72800004 2567475
-0.031654388 0.098362289 0.72700006 1514531
-0.028498054 0.097876705 0.72700012 1974306
-0.025493467 0.097512513 0.72700006 2236963
-0.022316426 0.097557224 0.72733343 2434341
-0.0191464 0.097646646 0.7280001 2894129
-0.016593546 0.097646646 0.7280001 2960956
-0.010211413 0.097646646 0.7280001 2830389
-0.0076585598 0.097646646 0.7280001 2830393
-0.031866834 0.10069919 0.72700006 1383461
-0.028686725 0.10072243 0.72716671 1449505
-0.025493467 0.1006992 0.72700006 1777448
-0.022316428 0.10074536 0.72733337 2039331
-0.0191464 0.10083771 0.72800004 2040597
-0.016593546 0.10083771 0.72800004 2500387
-0.031683609 0.10313078 0.72766668 1318177
-0.028700165 0.1033197 0.72750002 1515296
-0.025493469 0.10324854 0.72700006 1842978
-0.022321543 0.1033197 0.72750002 1973538
-0.0191464 0.10339057 0.72800004 1646360
-0.016593546 0.10275235 0.72800004 1975587
-0.028062537 0.10523288 0.72750008 1383713
-0.025493469 0.10516056 0.72700006 1515298
-0.022326656 0.10525698 0.72766668 1711910
-0.0076795998 0.025598668 0.73000002 2897213
-0.0076795993 0.028158532 0.73000002 2897215
-0.0044797664 0.028158532 0.73000002 2896702
-0.012707911 0.03154121 0.73000002 2830392
-0.010239467 0.031785008 0.73000002 2567732
-0.0076808049 0.031363953 0.73012501 2634296
-0.0044813007 0.031369399 0.73025006 2765115
-0.012799334 0.034558199 0.73000002 2436917
-0.010239467 0.034558199 0.73000002 2829876
-0.0076901205 0.03460554 0.73100001 3223612
-0.018559033 0.03775803 0.73000002 3225152
-0.016639132 0.03775803 0.73000002 3290945
-0.013183313 0.037246056 0.73000002 2502708
-0.010242755 0.037130997 0.73025 2765883
-0.0079037352 0.036955297 0.73100001 2501944
-0.019071007 0.040573884 0.73000002 3488325
-0.016639134 0.040317904 0.73000002 3160642
-0.013443196 0.040330563 0.73022223 2700082
-0.010378681 0.040106095 0.73080003 2305327
-0.0083309636 0.039091442 0.73100001 2369843
-0.0211189 0.043517731 0.73000002 3424834
-0.019198999 0.043517731 0.73000002 3947595
-0.016639132 0.043517731 0.73000002 3553346
-0.013450989 0.043557476 0.73066664 2962235
-0.010894336 0.043577343 0.73100001 2764603
-0.0211189 0.046717566 0.73000002 3358784
-0.019225299 0.046140715 0.73100001 3883334
-0.016639134 0.046717566 0.73000002 3489090
-0.013457709 0.046140715 0.73100001 3095361
-0.010467107 0.046354335 0.73100001 2700597
-0.0211189 0.0499174 0.73000002 3621187
-0.019225297 0.049344931 0.73100001 3818055
-0.01665053 0.049952026 0.73049998 3555149
-0.01361792 0.049184721 0.73100001 3031366
-0.010467107 0.048490476 0.73100001 2701628
-0.0211189 0.052477263 0.73000002 3620163
-0.019225299 0.052549154 0.73100001 3358535
-0.016661925 0.052549154 0.73100001 3490119
-0.014098553 0.051908311 0.73100001 3424834
-0.0211189 0.055677101 0.73000002 3489091
-0.019225299 0.055112526 0.73100001 3489096
-0.016875541 0.054898914 0.73100001 3490124
-0.021133365 0.058917694 0.73049998 3555144
-0.019545719 0.057996318 0.73100001 3816262
-0.021773331 0.061478876 0.73049998 4013119
-0.025598668 0.0652766 0.73000002 2435637
-0.022666741 0.064415708 0.73039997 3357243
-0.025598668 0.067196496 0.73000002 2303276
-0.022845933 0.066830635 0.73066664 3422270
-0.0249587 0.071036294 0.73000002 2043431
-0.023054142 0.071084946 0.73049998 2502958
-0.0249587 0.073596172 0.73000002 2108713
-0.023054143 0.073646575 0.73049998 2240299
-0.023054142 0.076848596 0.73049998 2306100
-0.022266261 0.079321101 0.73033333 2634288
-0.019866142 0.079678185 0.73100001 2961722
-0.021453349 0.082291819 0.73049998 3092019
-0.019421382 0.083019458 0.73033333 3223868
-0.019211709 0.10566682 0.73049998 1449756
-0.016639132 0.1055945 0.73000002 1842204
-0.0070685637 0.037913203 0.73300004 2502187
-0.0096389502 0.041768786 0.73300004 3092019
-0.0075826407 0.040740632 0.73300004 2829106
-0.0096389502 0.043696575 0.73300004 2633518
-0.00771116 0.043696575 0.73300004 2633266
-0.0096389502 0.045624364 0.73300004 2502187
-0.00771116 0.046266958 0.73300004 2699571
-0.012209337 0.050765134 0.73300004 3950154
-0.010067347 0.050336737 0.73300004 2830651
-0.0077111595 0.049479943 0.73300004 2895160
-0.013173232 0.053014226 0.73300004 3883331
-0.010281546 0.052692931 0.73300004 2962231
-0.0077135707 0.052711122 0.73325002 3224378
-0.016064916 0.055905912 0.73300004 4211284
-0.013497307 0.055276025 0.73316669 3095099
-0.01028856 0.05530145 0.7335 2830644
-0.0077188308 0.055320077 0.73375005 2699313
-0.018635305 0.059118897 0.73300004 3619911
-0.016707512 0.058476299 0.73300004 3554374
-0.013512939 0.058556072 0.73400009 3028537
-0.010295574 0.058556069 0.73400003 2633524
-0.0077216798 0.058556076 0.73400003 2370866
-0.0192779 0.06168928 0.73300004 3685703
-0.016712993 0.061710536 0.73325002 3487550
-0.013512939 0.061773438 0.73400003 2896442
-0.010295574 0.061773442 0.73400003 2633268
-0.0077216798 0.061773442 0.73400003 2305071
-0.02120569 0.064902268 0.73300004 3488830
-0.019284256 0.064281799 0.73325002 3356232
-0.016724389 0.064325631 0.73374999 3159358
-0.01351294 0.064347334 0.73400003 2896193
-0.010295574 0.064347334 0.73400003 2568510
-0.0077216802 0.064347327 0.73400003 2569527
-0.02120569 0.066830054 0.73300004 3422529
-0.019290611 0.066232607 0.7335 3290945
-0.016730307 0.066277757 0.73400003 3093816
-0.013512939 0.066277757 0.73400003 2765371
-0.0077216802 0.066277757 0.73400003 2633521
-0.0044981763 0.066187456 0.73300004 2764098
-0.02120569 0.07132823 0.73300004 2896693
-0.019290611 0.07137689 0.7335 3093815
-0.016730307 0.071425542 0.73400003 3028279
-0.013512939 0.071425542 0.73400003 2765623
-0.02120569 0.073256023 0.73300004 2569778
-0.019290611 0.073305987 0.73350006 2635318
-0.016730307 0.073355958 0.73400003 2831673
-0.021205688 0.076469004 0.73300004 2569271
-0.019286374 0.076503485 0.73333335 2962496
-0.016730307 0.076573335 0.73400003 2896958
-0.02120569 0.079039387 0.73300004 2896693
-0.018892342 0.07955347 0.73300004 2961979
-0.016715949 0.079722643 0.73337507 2896441
-0.019063702 0.082466573 0.73300004 3224125
-0.023625435 0.074658252 0.73016673 1580319
-0.015181165 0.062766701 0.73166668 2303020
-0.027429586 0.055208743 0.73175001 2368806
-0.024253972 0.056516621 0.73187506 1908769
-0.027193148 0.0044594575 0.70656669 2172975
-0.01638826 -0.00068277866 0.71250004 1383707
-0.038902082 0.031432882 0.71000004 2171946
-0.024274901 0.0068467669 0.71000004 1449254
-0.019548791 -0.0027255565 0.70850003 1778993
-0.019522928 0.019841596 0.72425002 1975594
-0.017160749 0.0190675 0.72500002 2433839
-0.01859891 -0.0042850445 0.71316117 1448989
-0.02570489 0.0046397578 0.71116668 1711925
-0.026789764 0.01314547 0.71200007 1514274
-0.020531239 0.022648683 0.72433335 1975339
-0.0096215606 0.013775793 0.73083329 1712429
-0.031516604 0.017887508 0.71400005 1317921
-0.021877218 0.0037503801 0.71300006 1252384
-0.033613443 0.073358148 0.72149998 1974566
-0.038449723 0.073117509 0.71900004 2369840
-0.0060796831 0.028158532 0.73000002 2896958
-0.023518555 0.00045871362 0.71425003 1842469
-0.018491529 -0.00353209 0.71100003 858139
-0.024309089 0.0081030298 0.71100003 794142
-0.015365922 0.023036266 0.727 1909796
-0.017467145 0.034349553 0.72650003 2568505
-0.0063587558 0.037346002 0.72666669 2566965
-0.031779166 0.058473665 0.72500002 2238513
-0.033068102 0.057798166 0.72626668 1974814
-0.016639132 0.043517731 0.73000002 3553346
-0.032762203 0.077362329 0.72333336 2171956
-0.030729577 0.080042191 0.72462499 1975593
-0.036987737 0.085817188 0.72333336 1514263
-0.023376316 0.076746687 0.72749996 2369327
-0.033167515 0.075253911 0.72420001 1909538
-0.016388461 0.017820936 0.72331256 1974564
-0.040340692 0.073117509 0.71900004 2304301
-0.010854667 0.013389548 0.7272501 1515298
-0.0060810531 0.031366676 0.73018754 2699577
-0.019071007 0.040573884 0.73000002 3488325
-0.016639134 0.040317904 0.73000002 3160642
-0.038246922 0.037831966 0.71133333 1908255
-0.014911223 0.037502043 0.73000002 2896698
-0.013450989 0.043557476 0.73066664 2962235
-0.010894336 0.043577343 0.73100001 2764603
-0.020172101 0.046429142 0.73049998 3620931
-0.016639134 0.046717566 0.73000002 3489090
-0.017943613 0.052549154 0.73100001 3424327
-0.025423333 0.085168168 0.72500002 2566972
-0.024222299 0.067013562 0.73033333 2829877
-0.03029497 0.091397315 0.7245 2368812
-0.019421382 0.083019458 0.73033333 3223868
-0.011790728 0.010197387 0.72700006 2238762
-0.0089349868 0.0191464 0.72800004 2830141
-0.014990271 0.022327386 0.72766674 2698034
-0.010211413 0.022337466 0.7280001 2502452
-0.024309089 0.0099729598 0.71100003 858909
-0.040287916 0.043781262 0.71140003 1974566
-0.040832855 0.049574625 0.71220005 1777955
-0.04369219 0.05243168 0.71200001 2303798
-0.030167855 0.082568847 0.7245 2106666
-0.03422682 0.09127152 0.72300005 2170917
-0.0076270001 0.097244248 0.72500002 2106148
-0.038396247 0.06420444 0.71800005 1713190
-0.041827522 0.070448935 0.71750003 2172457
-0.015480328 0.020938892 0.72750002 2829616
-0.01665053 0.049952026 0.73049998 3555149
-0.012042513 0.048837598 0.73100001 2833729
-0.023054142 0.076848596 0.73049998 2306100
-0.017379038 -0.0068274797 0.708 1382177
-0.038449723 0.066183947 0.71900004 1975591
-0.020172099 0.049631163 0.73049998 3686725
-0.021773331 0.061478876 0.73049998 4013119
-0.034132142 0.084610604 0.72600001 1712675
-0.024006423 0.073621377 0.73025 2174506
-0.022266261 0.079321101 0.73033333 2634288
-0.019211709 0.10566682 0.73049998 1449756
-0.016593546 0.028719598 0.7280001 2830390
-0.0076585598 0.030634239 0.72800004 1975589
-0.0054659639 0.031396814 0.73031259 1777958
-0.0063821338 0.031697929 0.72799999 2436657
-0.016593546 0.034463521 0.72800004 2633536
-0.02050953 0.037607163 0.72770005 3028800
-0.015636226 0.03637816 0.72800004 2633787
-0.026608806 0.055607628 0.72700006 2897205
-0.038416587 0.040412933 0.71140003 1842730
-0.022256959 8.167699e-05 0.71150005 1908261
-0.014942535 0.00027744984 0.71090001 1776938
-0.016269838 0.00011067931 0.71125007 1778464
-0.022811415 0.0024343496 0.71190834 1317659
-0.033017788 0.02142957 0.71187502 1974567
-0.0097955437 0.013859918 0.72479171 2172454
-0.014995054 0.02552426 0.72787511 2699573
-0.010211414 0.025528533 0.72800004 2700092
-0.019139607 0.034451902 0.72775006 2829366
-0.023586281 0.041117568 0.72716671 2897729
-0.025338648 0.054522876 0.72095561 1580569
-0.040270559 0.077385113 0.72000003 2303272
-0.023054142 0.071084946 0.73049998 2502958
-0.014090956 0.047772486 0.73466665 2632502
-0.0086750556 0.043696575 0.73300004 2633264
-0.012209337 0.050765134 0.73300004 3950154
-0.0088892533 0.04990834 0.73300004 2830137
-0.0090086255 0.05115613 0.73400003 2764351
-0.011727389 0.052853577 0.73300004 3422781
-0.0077135707 0.052711122 0.73325002 3224378
-0.034708988 0.022312921 0.70700002 1909293
-0.036381587 0.076715425 0.72063643 2237998
-0.03228062 0.088613465 0.72200006 2369322
-0.0096389502 0.045624364 0.73300004 2502187
-0.0061046681 0.046266958 0.73300004 2633525
-0.025493467 0.049712263 0.72700006 2765115
-0.0073353988 0.049772203 0.72787505 2699321
-0.026916003 0.050821535 0.72766674 1579554
-0.026449472 0.052261606 0.72700006 2634809
-0.022975679 0.052333497 0.72800004 3554367
-0.024247613 0.058705658 0.72787505 3291451
-0.031229496 0.061184321 0.72700006 2040878
-0.027107485 0.061233483 0.72758341 2567982
-0.023613892 0.061268479 0.72800004 3488823
-0.027110625 0.063791826 0.72766674 2436141
-0.028705865 0.076550536 0.7276668 1910057
-0.025591459 0.079326645 0.7277779 1844264
-0.023613892 0.079776667 0.72800004 2306094
-0.026541347 0.079155907 0.72956675 2238771
-0.020795235 0.088798679 0.72766674 2567220
-0.030076221 0.098119497 0.72700012 1711650
-0.023904946 0.097534865 0.72716677 2302756
-0.022321543 0.1033197 0.72750002 1973538
-0.019413564 -0.0061531039 0.71225005 2040872
-0.023429137 0.0060172202 0.71175003 1909025
-0.036528509 0.070848688 0.72050005 1910826
-0.011948968 0.023282416 0.73144442 2829875
-0.0096389502 0.041768786 0.73300004 3092019
-0.0083651524 0.054695234 0.73400003 1315860
-0.013497307 0.055276025 0.73316669 3095099
-0.017671408 0.058797598 0.73300004 3554374
-0.011904256 0.058556072 0.73400009 2830902
-0.023409776 0.060377061 0.72750008 1384741
-0.017995447 0.061699908 0.73312503 3553858
-0.011904256 0.061773442 0.73400003 2764855
-0.0061129965 0.061773442 0.73400003 2239283
-0.031229496 0.066920355 0.72700006 2236710
-0.031229496 0.072019048 0.72700006 1909542
-0.027436305 0.073377728 0.72783339 1976101
-0.019290611 0.073305987 0.73350006 2635318
-0.024856132 0.089864478 0.72700006 2567728
-0.0191464 0.097646646 0.7280001 2894129
-0.016593546 0.097646646 0.7280001 2960956
-0.0090938825 0.099300034 0.72725004 1909549
-0.030276779 0.10071081 0.72708338 1383715
-0.023904948 0.10072228 0.72716671 1908261
-0.0191464 0.10083771 0.72800004 2040597
-0.014998013 0.10083771 0.72800004 2828839
-0.0055703423 0.065355889 0.73011112 2237987
-0.028692717 0.066951036 0.72733337 2041134
-0.029967681 0.070776813 0.72733337 1844516
-0.038835458 0.082093984 0.72033334 2041130
-0.037344247 0.085448712 0.72200006 2434858
-0.011806946 0.097646646 0.7280001 2764595
-0.0060246726 0.028133331 0.72625005 1909542
-0.0090036951 0.055310763 0.73362505 2764850
-0.0077216798 0.058556076 0.73400003 2370866
-0.019284256 0.064281799 0.73325002 3356232
-0.015118664 0.064336479 0.73387504 3027775
-0.0090086274 0.064347327 0.73400003 2569018
-0.02024815 0.06653133 0.73325002 3356737
-0.015121623 0.066277757 0.73400003 2896697
-0.0054659639 0.031396814 0.73031259 1777958
-0.036122486 0.079426847 0.72089297 2172213
-0.02120569 0.064902268 0.73300004 3488830
-0.0044981763 0.066187456 0.73300004 2764098
-0.029047914 0.079698205 0.73050004 2041646
-0.020246031 0.076486245 0.73316669 2765883
-0.016730307 0.076573335 0.73400003 2896958
-0.02120569 0.079039387 0.73300004 2896693
-0.027405476 0.09241382 0.72700006 1779502
-0.017869972 0.091902718 0.72800004 2502192
-0.011806948 0.092221826 0.72800004 2436149
-0.013402482 0.09445557 0.7280001 2370861
-0.0089349868 0.09445557 0.72800004 2501937
-0.013576888 0.033285625 0.73161119 1976363
-0.018072877 0.036992662 0.72785008 2831165
-0.023904948 0.091797523 0.72716671 2174513
-0.016715949 0.079722643 0.73337507 2896441
-0.019063702 0.082466573 0.73300004 3224125
-0.028598651 0.053107034 0.72147787 1711901
-0.023113243 0.10042728 0.72733343 2105379
-0.016269838 0.00011067931 0.71125007 1778464
-0.04369219 0.05243168 0.71200001 2303798
-0.019222802 0.075290725 0.73178339 2371124
-0.041827522 0.070448935 0.71750003 2172457
-0.025360689 0.061250981 0.72779173 3028274
-0.015480328 0.020938892 0.72750002 2829616
-0.034122113 0.058680508 0.72756255 2436656
-0.019413564 -0.0061531039 0.71225005 2040872
-0.026916003 0.050821535 0.72766674 1579554
-0.0096389502 0.045624364 0.73300004 2502187
-0.019652035 0.086084068 0.73033345 2370868
-0.017869972 0.091902718 0.72800004 2502192
-0.011806948 0.092221826 0.72800004 2436149
-0.014181105 0.040529758 0.73033333 2896698
-0.008486134 0.044973437 0.73025 3160894
-0.010894336 0.043577343 0.73100001 2764603
-0.016639134 0.046717566 0.73000002 3489090
-0.011904256 0.058556072 0.73400009 2830902
-0.031779166 0.058473665 0.72500002 2238513
-0.00972059 0.010199251 0.72712505 2304300
-0.017671408 0.058797598 0.73300004 3554374
-0.014990271 0.022327386 0.72766674 2698034
-0.015365922 0.023036266 0.727 1909796
-0.0064787855 0.065925524 0.73021668 2698549
-0.028140012 0.082828268 0.73029166 2894901
-0.016036643 0.037570208 0.7335 2830905
0.019627104 0.0076442412 0.70700002 1252385
0.0068467669 -0.0280095 0.71000004 1646376
0.0093365004 -0.021785168 0.71000004 727847
0.0130711 -0.010581367 0.71000004 1055002
0.015560833 -0.0031121667 0.71000004 791583
0.017379038 0.00124136 0.708 1056032
0.018050566 0.00062243332 0.71000004 791579
0.019295434 0.0056019002 0.71000004 399133
0.020540299 0.0068467669 0.71000004 792331
0.021754485 0.0099440301 0.70899999 1120026
0.00062506337 -0.04312937 0.71300006 1909292
0.0046818382 -0.03401861 0.71200001 1646626
0.00561768 -0.03121021 0.71200001 1187093
0.0068564098 -0.029295569 0.71100003 1384994
0.0081144273 -0.026216716 0.71200001 1251850
0.0093671838 -0.025604805 0.71233338 1646099
0.0099878637 -0.022469845 0.71200001 1514018
0.010626078 -0.019126939 0.71300006 1710624
0.011357567 -0.016598983 0.71180004 1317922
0.013126331 -0.016460001 0.71300006 1316886
0.01184289 -0.01433613 0.71100003 1710116
0.013518493 -0.013517323 0.71166664 1512993
0.014376458 -0.010626078 0.71300006 1186588
0.015626583 -0.0093759503 0.71300006 1578782
0.014356294 -0.0074911169 0.71200001 989714
0.016251646 -0.0075007603 0.71300006 1513239
0.01433613 -0.0056097899 0.71100003 857624
0.016340191 -0.00461565 0.71140003 1315869
0.01682937 -0.0018699301 0.71100003 1315610
0.01873919 -0.0012496884 0.71250004 1317923
0.019973973 0.00436843 0.71200001 792345
0.021877218 0.0056255707 0.71300006 1121047
0.021846533 0.0074893632 0.71200001 1121043
0.023094907 0.00998611 0.71200001 1315357
0.024309089 0.010596271 0.71100003 1381153
0.0012527567 -0.043878041 0.71500003 2172198
0.0031384667 -0.04205545 0.71600002 1909542
0.0018778201 -0.041937981 0.71400005 1909542
0.0037617767 -0.040743083 0.71500003 1580577
0.0043815798 -0.037556402 0.71400005 1777955
0.0056492398 -0.035150826 0.71600002 1778208
0.0069046267 -0.033267748 0.71600002 1581598
0.0068949834 -0.031341713 0.71500003 1252886
0.0081486171 -0.028834444 0.71500003 1318176
0.01064098 -0.02315978 0.71400005 1318177
0.011892861 -0.019153763 0.71400005 1644831
0.013174196 -0.019197246 0.71560007 1644826
0.01439662 -0.016483089 0.71400005 1580058
0.01439662 -0.01439662 0.71400005 1776161
0.015692333 -0.01318156 0.71600002 1972536
0.016297234 -0.010656759 0.71500003 1775906
0.018203106 -0.0069046267 0.71600002 1971994
0.018516952 -0.0040800069 0.71600002 1841689
0.020713879 -0.00062769331 0.71600002 1580833
0.020072598 0.0012540716 0.71550006 1318177
0.020656021 0.0031297 0.71400005 988955
0.022580741 0.0043899082 0.7155 1054999
0.024480041 0.0056492398 0.71600002 1121047
0.02315978 0.0075112805 0.71400005 1185557
0.024480041 0.00753232 0.71600002 1185557
0.025270211 0.0098151602 0.71466666 1381401
0.0037714199 -0.042742759 0.71700001 1974564
0.0056729098 -0.040971018 0.71900004 1318931
0.0056571299 -0.037714198 0.71700001 1646626
0.0069335569 -0.037189078 0.71900004 1580833
0.0076822303 -0.034880638 0.71820009 1581088
0.0081942035 -0.031516168 0.71900004 1580833
0.014467192 -0.018870689 0.71750003 1776156
0.016236041 -0.01648677 0.71780002 1645857
0.016568122 -0.014051505 0.71766669 2103602
0.016971391 -0.01194283 0.71700001 1907495
0.018253952 -0.010072023 0.71800005 1842206
0.018857099 -0.0075428393 0.71700001 2038558
0.019924004 -0.0044029122 0.71766669 1842455
0.020800671 -0.0018909699 0.71900004 1122338
0.02199995 0.00125714 0.71700001 1186590
0.023257088 0.00314285 0.71700001 1121047
0.02495724 0.0044052503 0.71766669 1121044
0.025807314 0.0075524831 0.71800005 1053975
0.028011693 0.010386308 0.71800005 1381401
0.0046740361 -0.043829478 0.72040004 1974310
0.006962487 -0.042407874 0.72200006 1581598
0.0075857965 -0.041084982 0.72100008 1647130
0.0077923979 -0.038118053 0.72066671 1580833
0.0094943 -0.037344251 0.72200006 1580836
0.0094943 -0.034179479 0.72200006 1646624
0.0094679995 -0.03156 0.72000003 1580833
0.010760207 -0.027849948 0.72200006 1515047
0.0107304 -0.025879199 0.72000003 1776952
0.012026114 -0.025318135 0.72200006 1382959
0.013292021 -0.023419274 0.72200006 1711369
0.014517601 -0.020829599 0.72000003 1776411
0.016223887 -0.018751608 0.72100002 1515038
0.0170424 -0.0170424 0.72000003 1252384
0.018355647 -0.01666777 0.72200006 1646619
0.019105023 -0.013537837 0.72160006 2039333
0.019831253 -0.010483881 0.72040004 2039330
0.022153368 -0.0094943 0.72200006 2368296
0.020428088 -0.0077912291 0.72066671 1973023
0.022153368 -0.0075954404 0.72200006 2301987
0.020829599 -0.0050496003 0.72000003 1973277
0.022755638 -0.0044245366 0.72100002 2040095
0.022723198 -0.0012624 0.72000003 1318688
0.024685182 -0.0012659067 0.72200006 1713446
0.0233544 0.0012624 0.72000003 1186591
0.024650991 0.0012632767 0.72100008 1252384
0.025879199 0.0037872 0.72000003 989714
0.027514622 0.0047432054 0.72150004 1186838
0.028199563 0.0077136145 0.72120011 1382429
0.029076403 0.0094811497 0.72100008 1446947
0.031436682 0.010338238 0.72200006 1514013
0.0076270001 -0.045126416 0.72500002 2039585
0.0078248344 -0.043352041 0.72366667 1646368
0.0095337499 -0.042584084 0.72500002 1778207
0.010156184 -0.041255932 0.72400004 1777953
0.010775109 -0.037395973 0.72300005 1646379
0.01077511 -0.03422682 0.72300005 2040612
0.012076084 -0.033685919 0.72500002 2237982
0.01077511 -0.031691499 0.72300005 2039583
0.012076084 -0.031779166 0.72500002 2105376
0.01077511 -0.02979001 0.72300005 1515549
0.012577887 -0.028331939 0.72460002 1581090
0.013964424 -0.025388267 0.72399998 1645601
0.015889583 -0.02478775 0.72500002 1381403
0.014578091 -0.02281788 0.72300005 1579531
0.015889583 -0.022880999 0.72500002 1448480
0.016808331 -0.020297024 0.72350001 1776926
0.018431917 -0.0190675 0.72500002 1580574
0.019666849 -0.016706636 0.72366667 1778205
0.020916389 -0.01331043 0.72300005 2170917
0.022753883 -0.013093015 0.72500002 2236457
0.02478775 -0.012711667 0.72500002 2236462
0.023029156 -0.010352557 0.72300005 2236978
0.02478775 -0.010169333 0.72500002 2368570
0.02345171 -0.0076059601 0.72300005 2434089
0.024753559 -0.0076173567 0.72400004 2434345
0.025054257 -0.0041220868 0.72350001 2172195
0.026022974 -0.0012702901 0.72400004 1975087
0.027330084 -0.0012711667 0.72500002 1975087
0.025987031 0.0012676601 0.72300005 1449507
0.028331939 0.0013972314 0.72460002 1712164
0.029299429 0.0041850312 0.7234 1318691
0.031439897 0.0047629299 0.72450006 1515307
0.02979001 0.0069721304 0.72300005 1317925
0.03173621 0.0076164799 0.72400004 1514793
0.033685919 0.0082625831 0.72500002 1776411
0.032325331 0.0095074503 0.72300005 1317925
0.034078661 0.010371259 0.72433335 1646365
0.0095732007 -0.045313146 0.72800004 2170917
0.010204839 -0.043368265 0.72750008 1712162
0.012126054 -0.041483868 0.72800004 1909542
0.013236681 -0.037475638 0.72762507 1711908
0.013650753 -0.034572229 0.72759998 1908253
0.014031488 -0.031888749 0.72750008 1778192
0.014345117 -0.029009121 0.72725004 1646875
0.016274439 -0.028400496 0.72800004 1974564
0.016791089 -0.025717894 0.72733337 1908777
0.0191464 -0.02489032 0.72800004 1843247
0.01720809 -0.022944121 0.72700006 1514273
0.019142164 -0.022332644 0.72783345 1645861
0.021699253 -0.02106104 0.72800004 2171169
0.019757438 -0.019120101 0.72700006 1712416
0.021486515 -0.0191464 0.7280001 1711903
0.022324413 -0.016796153 0.72755563 1777695
0.02489032 -0.015955333 0.72800004 2236962
0.023581458 -0.014658744 0.72700006 2302503
0.024856132 -0.014658744 0.72700006 2368296
0.026166746 -0.010211414 0.72800004 2565422
0.028081387 -0.010211414 0.72800004 2697775
0.026166746 -0.0076585603 0.72800004 2697515
0.028081387 -0.0076585603 0.72800004 2697514
0.026130805 -0.0050986931 0.72700006 2499632
0.028349521 -0.0042845206 0.72785717 2368808
0.029347952 -0.0012762075 0.72775 2041385
0.031272452 -0.0012764267 0.72800004 2500656
0.029954825 0.00063733669 0.72700006 2304300
0.031697929 0.0014891644 0.72799999 2370349
0.032526527 0.0038262117 0.72750008 1713195
0.033794332 0.0044628181 0.72733337 1975841
0.034644697 0.0074388091 0.72733337 1712409
0.03637816 0.0082967738 0.72800004 2236710
0.035053518 0.0095600504 0.72700006 1907997
0.036328193 0.010197387 0.72700006 1843749
0.012176023 -0.045499876 0.73100001 2236710
0.010879433 -0.044157699 0.73000002 2039587
0.013133124 -0.043242238 0.73074996 2171430
0.014299311 -0.040763538 0.73033333 2368299
0.016650967 -0.036503084 0.73049998 1909798
0.018584454 -0.03652807 0.73100001 2041384
0.016645052 -0.034570254 0.73025 1909796
0.018584454 -0.03460554 0.73100001 1975591
0.016767126 -0.031614352 0.73000002 1844002
0.019092046 -0.031136746 0.73080003 1516837
0.02114783 -0.030119633 0.73100001 1386017
0.0172791 -0.0287985 0.73000002 1909794
0.019198999 -0.028158534 0.73000002 1843750
0.02114783 -0.028197106 0.73100001 1778461
0.019198999 -0.026238633 0.73000002 1974331
0.021774208 -0.025616201 0.73049998 1974308
0.022404239 -0.022617267 0.73016667 1908769
0.024992889 -0.021788673 0.73100001 2105630
0.023252122 -0.019198999 0.73000002 1516063
0.025420116 -0.019225299 0.73100001 1910051
0.025741037 -0.01703258 0.73039997 1975073
0.026238633 -0.0134393 0.73000002 2104870
0.027957777 -0.012592148 0.73033333 2368298
0.030739877 -0.0096060745 0.73049998 2895150
0.03111132 -0.0075535355 0.73019999 3026224
0.031535123 -0.0046420591 0.73037499 3223859
0.033964694 -0.0032042165 0.73100001 3489332
0.032638296 -0.0012799333 0.73000002 2961206
0.033964694 -0.0012816866 0.73100001 2896691
0.032638296 0.00063996663 0.73000002 2436142
0.034360949 0.0014941321 0.73033333 2501417
0.035214242 0.0044812276 0.73033333 2107427
0.03652807 0.0051267464 0.73100001 2303273
0.037118062 0.0076795998 0.73000002 2302503
0.039091442 0.0083309636 0.73100001 2237503
0.03775803 0.010239467 0.73000002 1975335
0.040355306 0.010248818 0.73066664 2172730
0.010939047 -0.048260499 0.73400003 1909542
0.012225993 -0.048260499 0.73400003 1646626
0.013763316 -0.046433527 0.73360002 2040353
0.014137127 -0.044339173 0.73300004 2302755
0.016086834 -0.043756187 0.73400003 2236962
0.016515816 -0.040109839 0.73400003 2105642
