# .PCD v0.7 - Point Cloud Data file format
VERSION 0.7
FIELDS x y z rgba
SIZE 4 4 4 4
TYPE F F F U
COUNT 1 1 1 1
WIDTH 1030
HEIGHT 1
VIEWPOINT 0 0 0 1 0 0 0
POINTS 1030
DATA ascii
-0.070066705 0.052880533 0.75400001 4278783753
-0.067422681 0.052880533 0.75400001 4279638035
-0.064778656 0.052880529 0.75400001 4279702545
-0.061473619 0.052880537 0.75400001 4279769620
-0.058207162 0.052916035 0.75450003 4279506458
-0.055561379 0.052916035 0.75450003 4279637791
-0.052915599 0.052916039 0.75450003 4279243283
-0.049641252 0.052950665 0.75500005 4279309076
-0.046331838 0.052950665 0.75500005 4278981134
-0.04390493 0.052730039 0.75500005 4278981122
-0.040374886 0.052288786 0.75500005 4279243021
-0.037727352 0.052288786 0.75500005 4279045139
-0.073436908 0.055573944 0.75466675 4279700498
-0.070113175 0.055561818 0.75450003 4279637511
-0.067467391 0.055561818 0.75450003 4279703068
-0.064821608 0.055561818 0.75450003 4279571486
-0.06186527 0.055249065 0.75475007 4279440412
-0.067512102 0.057583854 0.75500005 4280031532
0.025439404 0.029421225 0.75700003 4279900448
0.028536377 0.027651528 0.75700003 4279834143
0.022784859 0.032075774 0.75700003 4279966995
0.024554556 0.031190924 0.75700003 4279900192
0.019909099 0.034509107 0.75700003 4279769115
0.016590917 0.037163652 0.75700003 4279176724
0.0053090933 0.041809108 0.75700003 4279834908
0.0079636406 0.041809108 0.75700003 4280032284
0.010618187 0.040481836 0.75700003 4280293922
0.012609096 0.039154563 0.75700003 4279505438
-0.00066363666 0.044463657 0.75700003 4281543738
0.0015484857 0.044021234 0.75700003 4280558365
0.0039818198 0.043136384 0.75700003 4279114794
-0.013272732 0.047118202 0.75700003 4280033829
-0.010618187 0.047118202 0.75700003 4280098853
-0.0079636406 0.047118202 0.75700003 4280098077
-0.00597273 0.047118202 0.75700003 4280163870
-0.0019909102 0.045790929 0.75700003 4280360747
-0.028536377 0.049772751 0.75700003 4280294677
-0.025218192 0.049772751 0.75700003 4280162569
-0.022563647 0.049772751 0.75700003 4279835409
-0.019909099 0.048445474 0.75700003 4280426015
-0.016590917 0.048445474 0.75700003 4279967009
-0.01393637 0.048445474 0.75700003 4279705633
-0.043136384 0.053754568 0.75700003 4278982411
-0.040481836 0.053754568 0.75700003 4278980371
-0.036942441 0.053312141 0.75700003 4278913818
-0.034509107 0.052427296 0.75700003 4279703070
-0.031854562 0.051763661 0.75700003 4279638809
-0.028536377 0.051100027 0.75700003 4279179285
-0.025218192 0.051100023 0.75700003 4279572736
-0.076318212 0.056409117 0.75700003 4279764749
-0.061054572 0.056409117 0.75700003 4279375636
-0.058400027 0.055745479 0.75700003 4279507221
-0.055745479 0.055745479 0.75700003 4279373843
-0.052427296 0.055081841 0.75700003 4279373573
-0.049109112 0.055081841 0.75700003 4279570184
-0.046454564 0.055081841 0.75700003 4278455312
-0.043800019 0.055081841 0.75700003 4280032284
-0.041145474 0.055081841 0.75700003 4279505940
-0.076318212 0.057736389 0.75700003 4279240972
-0.073663659 0.058400024 0.75700003 4279307538
-0.070345484 0.058400024 0.75700003 4279702292
-0.067690939 0.059063662 0.75700003 4279439641
-0.064372756 0.057736386 0.75700003 4279768598
-0.061718207 0.057736389 0.75700003 4279898901
-0.073000029 0.060390934 0.75700003 4279242018
-0.070345484 0.060390934 0.75700003 4279637276
-0.068354577 0.060390934 0.75700003 4279111936
0.028687164 0.028687164 0.76100004 4279898145
0.030021451 0.028687164 0.76100004 4279442464
0.025529409 0.032189157 0.75966674 4279637276
0.027352877 0.030021451 0.76100004 4279045139
0.020627091 0.035265673 0.75900006 4279571483
0.022653066 0.034646742 0.76000011 4279769112
0.024684304 0.034024309 0.76100004 4279047956
0.01730014 0.037927233 0.75900006 4278979596
0.019988878 0.037310932 0.76000011 4278715922
0.010646241 0.041919574 0.75900006 4279834654
0.013541871 0.040180851 0.75966674 4280096547
0.016001359 0.040002741 0.76050001 4279505170
0.018680014 0.039361458 0.76100004 4278782979
0.0046577305 0.044137537 0.75900006 4279770416
0.0073280572 0.043974474 0.76000011 4279573791
0.01000715 0.04336432 0.76100004 4279179285
0.013342867 0.042030029 0.76100004 4279833378
-0.0039923405 0.04724269 0.75900006 4280097825
-0.0011095678 0.046840593 0.75966674 4280427823
0.0013307801 0.045911912 0.75900006 4280363295
0.0040028603 0.046032891 0.76100004 4279770155
-0.0199617 0.04990425 0.75900006 4280032284
-0.016634751 0.049904246 0.75900006 4280625444
-0.013109381 0.049548328 0.76033336 4279705119
-0.010660267 0.049304612 0.76000011 4279836696
-0.007597018 0.049450837 0.76020008 4279639310
-0.0046647433 0.048658799 0.76033336 4280231197
-0.0020014299 0.048701461 0.76100004 4279836706
-0.03460028 0.053896591 0.75900006 4279702560
-0.03193872 0.053231202 0.75900006 4279506973
-0.028611772 0.052565813 0.75900006 4279572249
-0.025284819 0.053231202 0.75900006 4279703811
-0.02262326 0.051900424 0.75900006 4279309845
-0.019680727 0.05170361 0.76100004 4279441432
-0.016678585 0.05137004 0.76100004 4280953386
-0.052565813 0.056558151 0.75900006 4279897865
-0.049238861 0.056558155 0.75900006 4280031505
-0.046577301 0.056558155 0.75900006 4278783778
-0.043915741 0.056558155 0.75900006 4279833356
-0.040256098 0.056225464 0.75900006 4279701531
-0.037310936 0.055967279 0.76000005 4279373085
-0.034913834 0.05581766 0.76099998 4279571740
-0.031088883 0.054839183 0.76100004 4279507229
-0.028020021 0.054705754 0.76100004 4279966743
-0.025351446 0.055372898 0.76100004 4279703319
-0.022682874 0.054705754 0.76100004 4279768608
-0.07740704 0.058776122 0.75900006 4279309582
-0.064542837 0.059219707 0.75900006 4279440147
-0.061047271 0.058828134 0.75966674 4278979850
-0.058631465 0.058632344 0.76000005 4279440399
-0.055580843 0.058781028 0.76020002 4279374359
-0.052354358 0.05848366 0.75980008 4279570446
-0.049303733 0.058632348 0.76000011 4279834131
-0.046638668 0.058632348 0.76000011 4279046442
-0.04336432 0.058708619 0.7610001 4279439117
-0.040028602 0.058708616 0.76100004 4279833112
-0.037360027 0.058041468 0.76100004 4279767062
-0.082508363 0.061215885 0.75900006 4279044620
-0.079846799 0.061215885 0.75900006 4278979345
-0.076519847 0.061215889 0.75900006 4279045892
-0.073192902 0.061881274 0.75900006 4279242012
-0.070531346 0.061881274 0.75900006 4279240722
-0.067247786 0.061589345 0.75950009 4279111430
-0.064626992 0.060963843 0.76000005 4279374605
-0.06204433 0.060710046 0.76100004 4279701777
-0.058708616 0.060710046 0.76100004 4279176975
-0.055372898 0.060710046 0.76099998 4279308561
-0.052037179 0.060710046 0.76100004 4279438598
-0.082375288 0.064276673 0.75900006 4279177240
-0.079249792 0.063933551 0.75966674 4279438864
-0.076004811 0.064004123 0.76050001 4279570440
-0.073289335 0.063962482 0.76000011 4279176722
-0.070939571 0.06382338 0.76099998 4278980371
-0.068048619 0.063378617 0.76100004 4278784783
-0.082286566 0.068091579 0.75900006 4278650631
-0.079556838 0.067214683 0.7610001 4279307525
0.027834168 0.03139694 0.76200002 4279112978
0.025630226 0.034990687 0.7626667 4280891698
0.022490004 0.037186444 0.76200002 4280363813
0.019720178 0.040441949 0.76250005 4282204214
0.0086842598 0.04475734 0.76200002 4279639836
0.01070147 0.044148058 0.76300001 4279047704
0.0133604 0.043421302 0.76200002 4278979600
0.015823251 0.042568594 0.7626667 4280293922
0.018083882 0.042195722 0.76400006 4283914075
0.00133604 0.04742942 0.76200002 4280888093
0.0040186401 0.047553908 0.76400006 4280294173
0.0073622465 0.046174034 0.76333338 4279834649
-0.0040081199 0.0501015 0.76200002 4280296476
-0.0011157045 0.04974382 0.76333338 4279902499
0.00066801999 0.048765462 0.76200002 4280162578
-0.01870456 0.05277358 0.76200002 4279703066
-0.015823249 0.052374404 0.7626667 4279835677
-0.013377933 0.052174818 0.76300007 4279769630
-0.010702346 0.052174818 0.76300007 4279770143
-0.0073578632 0.052174818 0.76300001 4279244826
-0.0040186401 0.051572546 0.76400006 4280099622
-0.034069017 0.056781702 0.76200002 4279245078
-0.03139694 0.056781698 0.76200002 4279049243
-0.028056839 0.056781702 0.76200002 4279508250
-0.025384758 0.056781702 0.76200002 4279180046
-0.022712678 0.056781702 0.76200002 4279966239
-0.019593 0.055147596 0.76314288 4279638545
-0.016283207 0.054650813 0.76333332 4279967252
-0.013395466 0.054251645 0.76400006 4280163357
-0.011386147 0.054251645 0.76400006 4280294173
-0.037409119 0.059453778 0.76200002 4280292632
-0.034804985 0.058901917 0.76349998 4279898899
-0.031479347 0.058940053 0.764 4279440917
-0.028353738 0.058716793 0.76400012 4279507981
-0.025384758 0.058117736 0.76200002 4279704320
-0.022712678 0.058117736 0.76200002 4279834905
-0.0634619 0.062125862 0.76200002 4279701523
-0.061288353 0.061734866 0.7626667 4279308301
-0.058785759 0.062125862 0.76200002 4279177483
-0.05544566 0.062125862 0.76200002 4279176723
-0.05224232 0.062288918 0.76400006 4279111182
-0.049498353 0.061539367 0.76300001 4279898902
-0.046822764 0.061539367 0.76300001 4279505170
-0.043478284 0.061539367 0.76300001 4279833877
-0.040081203 0.06078982 0.76200002 4280162075
-0.037507311 0.060949374 0.76400006 4279701272
-0.070142098 0.064797938 0.76200002 4279376920
-0.067223683 0.064548969 0.76300001 4279178774
-0.064298242 0.063628465 0.76400006 4279570963
-0.061619148 0.063628465 0.76400006 4279439373
-0.058940053 0.063628465 0.76400006 4278979595
-0.055591192 0.063628465 0.76400012 4279044632
-0.078158334 0.06880606 0.76200002 4279112199
-0.076220907 0.067530222 0.7626667 4279373578
-0.073529981 0.066846281 0.76250005 4279570957
-0.071156695 0.066696219 0.76333332 4280230425
-0.068986662 0.066307567 0.76400006 4279311127
0.027568536 0.035637375 0.76700002 4285493091
0.023534117 0.03832699 0.76700002 4282534226
0.025535107 0.036958076 0.7665 4284640360
0.022160381 0.039620072 0.76600003 4285953402
0.011415953 0.044992287 0.76600003 4278918429
0.013430533 0.044992287 0.76600003 4283060803
0.016788168 0.043649234 0.76600003 4283845963
0.0067200884 0.047709513 0.7665 4279899149
0.010758453 0.046395827 0.76700002 4278852382
0.015465276 0.04505102 0.76700002 4287598190
0.0013434916 0.049725849 0.7665 4280097302
0.0040322281 0.049053445 0.7665 4280293920
0.0060516302 0.049085442 0.76700002 4280096784
-0.0047068233 0.053119864 0.76700002 4279639334
-0.0020145799 0.051707555 0.76600003 4280361249
-0.015445112 0.055736713 0.76600003 4280294677
-0.013438861 0.055773094 0.7665 4280425756
-0.010529935 0.055337537 0.76666665 4280163363
-0.0087412437 0.054464672 0.76700002 4280163618
-0.027532594 0.059765875 0.76600003 4279901449
-0.025518013 0.059765875 0.76600003 4280294661
-0.022831907 0.059765875 0.76600003 4279769112
-0.019482749 0.058224693 0.76633334 4279571724
-0.016354509 0.057577711 0.76666671 4280359954
-0.013448066 0.057154279 0.76700002 4280623650
-0.0402916 0.062451985 0.76600003 4279702296
-0.037605494 0.062451985 0.76600003 4279439124
-0.03494218 0.061821215 0.7665 4279373327
-0.031582352 0.061821211 0.7665 4279703823
-0.028231513 0.06184116 0.76675004 4279310336
-0.025775461 0.061636973 0.76700002 4279572741
-0.023534117 0.061188705 0.76700002 4279900196
-0.064466566 0.065138087 0.76600003 4279177754
-0.061780453 0.065138087 0.76600003 4279308560
-0.058422823 0.065138087 0.76600003 4279045386
-0.055100694 0.0651806 0.7665 4279110932
-0.05241327 0.064509079 0.7665 4279045392
-0.04972541 0.064509079 0.7665 4279506452
-0.046640243 0.064651892 0.76660001 4279309071
-0.043403063 0.064366266 0.76639998 4279571479
-0.040317461 0.063836679 0.7665 4279045139
-0.037654586 0.06387832 0.76700002 4279241488
-0.034292568 0.06387832 0.76700002 4279045139
-0.031871919 0.064416245 0.76700002 4280361521
-0.028913341 0.06387832 0.76700002 4283256361
-0.069838777 0.067824192 0.76600003 4280099359
-0.067152664 0.067152664 0.76600003 4279639329
-0.064746507 0.066987269 0.76666671 4279310369
-0.061861105 0.067240328 0.76700002 4279046935
-0.05883529 0.066904128 0.76700002 4279111696
-0.055137075 0.066567928 0.76700002 4279505186
-0.078568615 0.070510298 0.76600003 4279440395
-0.076330207 0.070957981 0.76600003 4279177226
-0.073867932 0.070510305 0.76600003 4279110931
-0.070550635 0.070551209 0.7664445 4280163095
-0.067576535 0.070266142 0.76700002 4281675824
-0.073196404 0.073196404 0.76600003 4278914821
-0.071181826 0.073196404 0.76600003 4279372557
0.03303368 0.031685364 0.76900005 4285230965
0.028988736 0.035056148 0.76900005 4287203957
0.030337052 0.034381989 0.76900005 4286744428
0.024943799 0.038426932 0.76900005 4284637529
0.022247171 0.041123558 0.76900005 4286744215
0.018876389 0.043146029 0.76900005 4284768351
0.0087640369 0.047865123 0.76900005 4280032284
0.012808977 0.046516813 0.76900005 4283064940
0.016853917 0.045168497 0.76900005 4287400848
0.0020224701 0.050561752 0.76900005 4279703319
0.0040449402 0.050561752 0.76900005 4279176725
-0.0006741567 0.051910065 0.76900005 4280690214
-0.0074157231 0.055056129 0.76900005 4280097571
-0.019550545 0.059999943 0.76900005 4279638026
-0.015505603 0.058651634 0.76900005 4280097825
-0.011460664 0.057303321 0.76900005 4280097825
-0.024943799 0.062696576 0.76900005 4280559380
-0.022921328 0.062022418 0.76900005 4281610548
-0.040449403 0.065393195 0.76900005 4278387464
-0.037752774 0.065393195 0.76900005 4279242515
-0.035280868 0.064943753 0.76900005 4279372810
-0.030337052 0.065393195 0.76900005 4281941826
-0.028314579 0.064719036 0.76900005 4284439621
-0.02629211 0.064044885 0.76900005 4286216283
-0.064044885 0.068089828 0.76900005 4280428336
-0.058651634 0.068089828 0.76900005 4279770120
-0.052584223 0.066741511 0.76900005 4279311376
-0.049887598 0.066741511 0.76900005 4280099094
-0.04651681 0.066741511 0.76900005 4279374102
-0.033707835 0.066741511 0.76900005 4286281810
-0.031685364 0.066741511 0.76900005 4286611071
-0.066741511 0.070786446 0.76900005 4282597434
-0.066741511 0.072134763 0.76900005 4280291356
0.031398401 0.03546438 0.77300006 4287598453
0.033205505 0.034560833 0.77300006 4287665567
0.026360489 0.03852687 0.77100003 4287993228
0.028212011 0.037691116 0.77233338 4288388242
0.023687534 0.040608078 0.77200007 4286414730
0.025503695 0.040399432 0.77233338 4287072387
0.020302724 0.043315224 0.77200007 4287795601
0.021007564 0.044048116 0.77300006 4289571499
0.010814561 0.047989611 0.77100003 4281086269
0.014194109 0.046637788 0.77100003 4284772212
0.016263921 0.046758775 0.77300006 4287534746
0.00744553 0.050082214 0.77200007 4280687907
0.010164951 0.049469426 0.77300006 4282069037
-0.0033883168 0.053535406 0.77300006 4279968556
-0.0013553267 0.053535406 0.77300006 4280494379
0.00135182 0.05204507 0.77100003 4280099873
0.0040615965 0.052112572 0.77200007 4279769112
0.0060989703 0.052180078 0.77300006 4280821273
-0.0067766337 0.056246057 0.77300006 4280360997
-0.0047436436 0.054890733 0.77300006 4278521612
-0.013518199 0.058804169 0.77100003 4281413685
-0.010814561 0.05812826 0.77100003 4280229409
-0.0088096233 0.057601381 0.77300006 4280887593
-0.01961834 0.061110388 0.77166671 4282466865
-0.01622184 0.060155991 0.77100003 4280953634
-0.014230931 0.060312036 0.77300006 4281282351
-0.022362892 0.063022695 0.77300006 4282334005
-0.057452351 0.068266906 0.77100003 4279440899
-0.055424623 0.068266906 0.77100003 4278850569
-0.052788481 0.068355456 0.77200007 4279771663
-0.050083093 0.068355456 0.77200007 4280362003
-0.046637788 0.068266906 0.77100009 4280953109
-0.043314349 0.067679539 0.77200007 4280690985
-0.040607199 0.067679539 0.77200007 4282006595
-0.037949149 0.067088671 0.77300006 4283322198
-0.03582323 0.066915087 0.77100003 4283979094
-0.06454774 0.070503458 0.77179998 4283319876
-0.062064786 0.070190907 0.77233338 4283584332
-0.065055683 0.072509982 0.77300006 4280093974
0.034831721 0.034605537 0.77400011 4288190876
0.029177221 0.038676783 0.77400005 4287928739
0.031233441 0.038023226 0.77450001 4288716423
0.033334374 0.038096428 0.77600002 4287730834
0.026463062 0.041390941 0.77400005 4289046177
0.0285355 0.040765878 0.7750001 4288060067
0.030613201 0.040137306 0.77600002 4287729799
0.0230857 0.043455049 0.77450001 4288717985
0.025602758 0.043275189 0.7753334 4288586151
0.019011833 0.046170965 0.77450001 4287336086
0.021524504 0.045994025 0.7753334 4288981412
0.0088210199 0.050890502 0.77400005 4280887341
0.010856641 0.050211959 0.77400005 4282861387
0.013589211 0.048238583 0.77500004 4286283412
0.0013570799 0.053604662 0.77400005 4282861633
0.0040712403 0.053604662 0.77400005 4284308563
0.0077437731 0.053117234 0.7748 4282730042
0.010884693 0.051702291 0.77600002 4282861378
-0.0038479825 0.055914968 0.77466673 4282597180
-0.0013592717 0.055748548 0.77550006 4282731606
0.0013592716 0.055748548 0.77550006 4283586131
0.0038520733 0.055509951 0.7753334 4284309594
0.0061226399 0.05510376 0.77600002 4284770916
-0.0101781 0.05903298 0.77400005 4281873704
-0.007472707 0.05842983 0.7750001 4283255377
-0.0047620535 0.057824928 0.77600002 4282723106
-0.018320579 0.061747141 0.77400005 4286677086
-0.01632704 0.061906695 0.77600002 4286874213
-0.01289226 0.060390059 0.77400005 4281543738
-0.01086979 0.060468085 0.77500004 4282136117
-0.0088438131 0.060546108 0.77600002 4285557338
-0.02782014 0.065818377 0.77400005 4285359452
-0.025105981 0.064461306 0.77400005 4286808164
-0.02244968 0.063947573 0.77600002 4285688933
-0.019728508 0.063267276 0.77600002 4285754210
-0.037998244 0.068532541 0.77400005 4284175964
-0.03460554 0.068532541 0.77399999 4286544507
-0.030534301 0.067175463 0.77400005 4287268744
-0.060390059 0.070568159 0.77400005 4283649866
-0.058391694 0.070614189 0.77450001 4283453510
-0.055712167 0.070660219 0.77500004 4283716427
-0.052600004 0.070814334 0.77520007 4285358423
-0.049565416 0.070274919 0.77450001 4285951073
-0.046140719 0.069889627 0.77400005 4286347362
-0.043237198 0.070403352 0.77466673 4287201913
-0.040765002 0.070660219 0.77500004 4287531399
-0.038048211 0.069979921 0.77500004 4287137161
-0.035962623 0.069889627 0.77400005 4286807691
-0.06310422 0.072603785 0.77400005 4280159507
-0.061146624 0.072697587 0.77500004 4280624139
-0.058505222 0.07279139 0.77600002 4279572237
0.03478438 0.038194619 0.77800006 4285099114
0.036148474 0.038194619 0.77800006 4283784771
0.031374149 0.040922802 0.77800006 4287466882
0.033420287 0.040240757 0.77800006 4285954933
0.027963914 0.04296894 0.77800006 4289309338
0.023189588 0.046379171 0.77800006 4288521358
0.025235727 0.045697127 0.77800006 4288191645
0.013640934 0.049789406 0.77800006 4286808714
0.016369119 0.048425313 0.77800006 4289439666
0.018415261 0.048425313 0.77800006 4289044642
0.010912747 0.053199641 0.77800006 4282991403
0.012958887 0.051153503 0.77800006 4287532677
0.0047743269 0.056609876 0.77800006 4283650381
0.0075025135 0.055245783 0.77800006 4283981143
-0.0061384202 0.059338063 0.77800006 4285031535
-0.0038649312 0.058883365 0.77800006 4285621082
-0.0020461399 0.05797397 0.77800006 4286610037
-0.01432298 0.062066246 0.77800006 4284110655
-0.022507541 0.064794436 0.77800006 4287334530
-0.038194619 0.071614899 0.77800006 4286940036
-0.055927828 0.072978996 0.77800006 4280227905
0.032138597 0.0417118 0.78000003 4286019947
0.034211479 0.041054737 0.78050005 4282008383
0.0266682 0.044446997 0.78000003 4288849829
0.028960099 0.044010121 0.78033334 4286611065
0.031475402 0.043107018 0.78050005 4282928705
0.023933001 0.047182202 0.78000003 4288061079
0.0164112 0.0499174 0.78000003 4288716189
0.019158233 0.049265597 0.78050005 4288914073
0.013903934 0.05219673 0.78000003 4288780174
0.016197292 0.051785287 0.78066665 4288254346
0.018486269 0.05135075 0.78100002 4287398767
0.0078665484 0.056431692 0.78025007 4284177490
0.011086151 0.055704631 0.78060001 4283387722
0.013459757 0.054522824 0.78066665 4285951853
0.015747564 0.054089457 0.78100002 4286147690
-0.0011396668 0.059034735 0.78000003 4285162579
0.0013676001 0.058806799 0.78000003 4283980379
0.0038783734 0.058629129 0.78066665 4284570458
0.0068467669 0.058197517 0.78100002 4284701021
-0.0129922 0.0622258 0.78000003 4283124555
-0.010940799 0.0622258 0.78000003 4281019955
-0.0072498573 0.061694719 0.7802 4285032804
-0.0041054301 0.061581887 0.78049999 4284110168
-0.0013693533 0.060936224 0.78100002 4284768331
0.0013693533 0.060936224 0.78100002 4284246114
-0.021224976 0.065044284 0.78100002 4287071872
-0.018934831 0.064560652 0.78066665 4287202691
-0.016426761 0.064339221 0.78075004 4287465351
-0.013693534 0.064359605 0.78100002 4285624443
-0.010954826 0.064359605 0.78100002 4281415236
-0.0082161203 0.063674927 0.78100002 4282991414
-0.028737571 0.067739591 0.78050005 4287531655
-0.026001057 0.067055792 0.78049999 4287662725
-0.023263665 0.066371113 0.78050005 4287466888
-0.048549797 0.071798995 0.78000003 4286675831
-0.046498403 0.071798995 0.78000003 4286347628
-0.044446997 0.071798995 0.78000003 4286611050
-0.031495124 0.069152348 0.78100002 4287005306
-0.058123 0.0745342 0.78000003 4279504391
-0.055387802 0.073850401 0.78000003 4280557339
-0.052035429 0.073260404 0.78100002 4282791212
0.031616982 0.044674933 0.78400004 4281743906
0.026084341 0.046677239 0.78300005 4286942094
0.028867755 0.046049546 0.78400004 4283386964
0.019906471 0.05010939 0.78300005 4289046179
0.021994689 0.048798773 0.78400004 4287993756
0.017160749 0.052855112 0.78300005 4287860352
0.019245464 0.052234434 0.78400004 4286676342
0.01395741 0.05651607 0.78300005 4282071863
0.016717741 0.055190548 0.78366667 4283717206
0.018580951 0.054366484 0.78500003 4282334272
0.0048050103 0.05971941 0.78300005 4284374624
0.0078939451 0.059376195 0.78300005 4284503893
0.010990331 0.05907112 0.78350002 4284176459
0.013755339 0.059146512 0.7845 4280889383
0.015828216 0.057119213 0.78500003 4279045639
-0.00137286 0.062465131 0.78300005 4284964963
0.00137286 0.062465131 0.78300005 4285295958
0.0038926925 0.06160308 0.78366667 4284637788
0.0068739434 0.061170295 0.78400004 4284964701
-0.0072114603 0.064909279 0.78350002 4283516737
-0.00412384 0.06460771 0.78400004 4284701788
-0.0013737368 0.063919529 0.78400004 4284765019
0.00068818335 0.064001054 0.78500003 4285358408
-0.024025051 0.067956574 0.78300005 4287729547
-0.021774353 0.067614667 0.78433341 4287203202
-0.019465799 0.067099191 0.78366667 4287268996
-0.016516399 0.066753782 0.78500003 4287399817
-0.013534273 0.067212574 0.78500003 4286347383
-0.011240329 0.067212574 0.78500003 4282992449
-0.028830059 0.069329433 0.78300005 4287267967
-0.025462784 0.069506519 0.78500003 4287925384
-0.049422961 0.07344801 0.78300005 4283054398
-0.046677239 0.07344801 0.78300005 4282530873
0.026907532 0.047605634 0.78700006 4284969075
0.028977342 0.047605634 0.78700006 4281480759
0.031737085 0.046225756 0.78700006 4279376671
0.022077974 0.050365377 0.78700006 4287073166
0.024147784 0.049675442 0.78700006 4284836726
0.020008164 0.053125124 0.78700006 4285558896
0.020008164 0.054504998 0.78700006 4281349688
0.0048295567 0.06278424 0.78700006 4285953892
0.0068993671 0.06278424 0.78700006 4285293659
-0.0013798734 0.065543987 0.78700006 4283847260
0.0016098522 0.065084033 0.787 4285556558
0.0034496835 0.06416411 0.78700006 4286282117
-0.018628292 0.068303734 0.78700006 4287006594
-0.017248416 0.068303734 0.78700006 4286743422
-0.01448867 0.068303734 0.78700006 4285295708
-0.0075893034 0.066923857 0.787 4282398496
-0.0041396199 0.066923857 0.78700006 4284834660
-0.031737085 0.071063481 0.78700006 4287332465
-0.029667279 0.071063481 0.78700006 4286873457
-0.024837721 0.071063481 0.78700006 4285556837
-0.022077974 0.069683604 0.78700006 4286545278
0.044268161 0.031817738 0.78900003 4280228098
0.045920674 0.032075774 0.78966665 4279899921
0.043631699 0.033935767 0.79000002 4280294929
0.045016833 0.033935767 0.79000002 4280032788
0.031817738 0.047726609 0.78900003 4279967508
0.034397479 0.045478541 0.79000002 4278722842
0.025624966 0.04917223 0.79000002 4283389287
0.0270101 0.04917223 0.79000002 4280297017
0.022141313 0.052585315 0.78925002 4282268995
0.024239834 0.051942497 0.79000002 4279375153
0.021469565 0.054712765 0.79000002 4280033829
0.016610641 0.058139216 0.7895 4278522131
0.0089919697 0.061560407 0.78900003 4284438100
0.0103885 0.061638433 0.79000002 4283845963
0.0043807034 0.065249421 0.78900003 4285294704
0.0069212834 0.065060504 0.7895 4284966231
0.009465077 0.063485272 0.79000002 4283716691
-0.015908871 0.06847731 0.78900003 4286743154
-0.0096959332 0.068564095 0.79000002 4281412366
-0.0069217216 0.068520702 0.7895 4282003500
-0.0041501401 0.06847731 0.78900003 4285491295
-0.00138338 0.067785621 0.78900003 4283651169
0.00138338 0.067785621 0.78900003 4284370778
0.0039245444 0.06764067 0.79000002 4284111201
-0.03389281 0.071244068 0.78900003 4287136393
-0.028359292 0.071244068 0.78900003 4286676334
-0.026975911 0.071244068 0.78900003 4286806119
-0.022134081 0.071244068 0.78900003 4282401098
-0.019606357 0.070351921 0.78933334 4284441702
-0.016610641 0.069904961 0.7895 4284444012
-0.0062330998 0.069949232 0.79000002 4280491551
-0.0041553997 0.069949232 0.79000002 4283911241
-0.0013851334 0.069949232 0.79000002 4283584852
0.0013851334 0.069949232 0.79000002 4282922048
-0.0270101 0.072719499 0.79000002 4284177495
-0.024932399 0.072719499 0.79000002 4284045399
-0.022162132 0.072719499 0.79000002 4281876028
0.058433779 0.013913139 0.79350007 4278847769
0.055870552 0.016924342 0.79333335 4279240731
0.05847016 0.016705759 0.79400003 4278978333
0.061254449 0.016705759 0.79400003 4278846486
0.053597644 0.019490054 0.79400003 4278979094
0.055917889 0.019722078 0.79399997 4278848530
0.05847016 0.019490054 0.79400003 4278584849
0.061254449 0.019490054 0.79400003 4278846989
0.055685867 0.021578273 0.79400003 4278783251
0.05847016 0.021578273 0.79400003 4278585619
0.060558379 0.021578273 0.79400003 4278978842
0.047908079 0.03193872 0.79200006 4279966238
0.050117277 0.032019373 0.79400003 4279637527
0.043047842 0.035410319 0.79200006 4280360470
0.046056557 0.03494744 0.79200006 4279966488
0.049142778 0.034664452 0.79400003 4279703835
0.040570963 0.03778784 0.79333335 4279965715
0.043156546 0.037587959 0.79400003 4279703322
0.045940839 0.037587959 0.79400003 4279703070
0.048725136 0.036891885 0.79400003 4279902249
0.039676182 0.039676182 0.79400003 4278194193
0.038187601 0.043047842 0.79200006 4278917393
0.03494744 0.047445197 0.79200006 4279640094
0.036845423 0.045883857 0.79300004 4279246114
0.025689842 0.050685361 0.79200006 4281415232
0.028774302 0.050181102 0.79280007 4279901980
0.031787347 0.049885254 0.79399997 4280164897
0.025027957 0.052834071 0.79300004 4279506710
0.027842933 0.052205499 0.79400003 4279901730
0.022274347 0.055685867 0.79400003 4279706143
0.024362566 0.054989792 0.79400003 4279638030
0.017401833 0.059166234 0.79400003 4279439641
0.019242249 0.058189627 0.79333335 4279244325
0.011833246 0.061950523 0.79400003 4283649337
0.010433502 0.064679295 0.79333335 4282137403
0.0048602405 0.068737678 0.79200006 4279438350
0.0067170202 0.067869782 0.79266673 4281803554
0.0097450269 0.066823035 0.79400003 4282070576
-0.018746641 0.071514964 0.79200006 4281086773
-0.013903057 0.07021486 0.79300004 4283127382
-0.0097450269 0.070303403 0.79400003 4281149982
-0.0076568066 0.070303403 0.79400003 4280360222
-0.0041764397 0.071695551 0.79400003 4282726967
-0.0013921466 0.071695551 0.79400003 4281742360
0.00069607334 0.071695551 0.79400003 4280160011
0.0034716001 0.070126317 0.79200006 4282334787
-0.020186126 0.0730877 0.79400003 4279246616
0.05512831 0.018841321 0.79600006 4279308064
0.055826135 0.023028281 0.79600006 4279504917
0.058617443 0.023028281 0.79600006 4278979347
0.055826135 0.02512176 0.79600006 4279177745
0.058617443 0.025121761 0.79600006 4279308049
0.061408751 0.02512176 0.79600006 4279440416
0.064200059 0.025121761 0.79600006 4278981658
0.066991359 0.025121761 0.79600006 4278520845
0.055826135 0.027913066 0.79600006 4279505440
0.058617443 0.027913067 0.79600006 4279242530
0.061408751 0.027913067 0.79600006 4278980893
0.064200059 0.027913067 0.79600006 4279111446
0.066758752 0.027680459 0.79600006 4279175954
0.053034831 0.0314022 0.79600006 4279440403
0.055826131 0.031402204 0.79600006 4279111966
0.050941348 0.035589162 0.79600006 4278981659
0.053034827 0.034891337 0.79600006 4278981658
0.055826135 0.034891337 0.79600006 4278718489
0.049894609 0.038031556 0.79600006 4279244063
0.053034831 0.037682641 0.79600006 4279177759
0.055826135 0.037682641 0.79600006 4279111194
0.040706556 0.040706556 0.79600006 4278851097
0.043265253 0.040473949 0.79600006 4279570710
0.046056561 0.040473949 0.79600006 4279570959
0.049545694 0.040473949 0.79600006 4279637017
0.052337002 0.040473949 0.79600006 4279899678
0.040473949 0.043265253 0.79600006 4279768608
0.043265257 0.043265253 0.79600006 4279637279
0.046056561 0.043265253 0.79600006 4279506178
0.049545694 0.043265253 0.79600006 4279636766
0.038380466 0.046056561 0.79600006 4279180320
0.040473949 0.046056561 0.79600006 4279965215
0.043265253 0.046056561 0.79600006 4279176725
0.046056561 0.046056561 0.79600006 4278980103
0.032797854 0.050941348 0.79600006 4280229663
0.034891337 0.050243519 0.79600006 4279771158
0.037450034 0.048615258 0.79600006 4279179291
0.040706556 0.048615258 0.79600006 4279571733
0.043265253 0.048847869 0.79600006 4278916100
0.025819587 0.053732656 0.79600006 4279900698
0.027215241 0.053732656 0.79600006 4280098077
0.0314022 0.052337002 0.79600006 4280294687
0.023028281 0.056523964 0.79600006 4279442714
0.024423935 0.056523964 0.79600006 4279508507
0.020236975 0.059315268 0.79600006 4279047956
0.022330455 0.058617443 0.79600006 4279771431
0.024423935 0.057919618 0.79600006 4279573278
0.013956534 0.06210658 0.79600006 4283123004
0.01674784 0.060710922 0.79600006 4279702815
0.018841321 0.060710922 0.79600006 4280293153
0.011863054 0.064897887 0.79600006 4280428062
0.013723925 0.063967444 0.79600006 4280821540
0.011165227 0.066991359 0.79600006 4280491808
0.013258708 0.06629353 0.79600006 4280229667
-0.011863054 0.070480496 0.79600006 4282730826
-0.0062804404 0.071876146 0.79600006 4280162335
0.0020934802 0.071876146 0.79600006 4279502081
0.0048847869 0.070480496 0.79600006 4279703323
0.0076760934 0.069084845 0.79600006 4280885040
0.038476903 0.049670178 0.79800004 4279310621
0.039876062 0.049670178 0.79800004 4279505940
0.052468497 0.049670178 0.79800004 4279637022
0.028682781 0.05386766 0.79800004 4279900192
0.031481098 0.053867657 0.79800004 4280228895
0.034979001 0.053168081 0.79800004 4280098063
0.037637405 0.052188672 0.79800004 4279573267
0.040575638 0.052468505 0.79800004 4279505680
0.043373957 0.052468505 0.79800004 4279570184
0.046032362 0.052748334 0.79800004 4279636243
0.049110513 0.052748334 0.79800004 4279045641
0.052468505 0.052468505 0.79799998 4279569948
0.025884461 0.0559664 0.79800004 4280162325
0.0279832 0.0559664 0.79800004 4280294174
0.031534869 0.056059912 0.79933339 4280031770
0.035066668 0.056106664 0.80000001 4280097559
0.038012262 0.055685867 0.80000001 4279374862
0.040600624 0.056001909 0.79850006 4279504648
0.043373957 0.0559664 0.79800004 4279505666
0.04617228 0.0559664 0.79800004 4279441430
0.049031965 0.056037411 0.79900002 4278783500
0.025418073 0.05899791 0.79800004 4279571737
0.0279832 0.058764718 0.79800004 4279833115
0.031534869 0.058862906 0.79933333 4279964944
0.035066664 0.058911998 0.80000001 4280227096
0.037872002 0.058912002 0.80000001 4279701269
0.040677331 0.058912002 0.80000001 4279109889
0.043482661 0.058912002 0.80000001 4278783490
0.046287999 0.058911998 0.80000001 4278653699
0.016789921 0.062262621 0.79800004 4280162589
0.019821433 0.061796233 0.79800004 4280293661
0.02238656 0.061563041 0.79800004 4279768591
0.025216438 0.061641067 0.79900002 4279374350
0.028018266 0.061641067 0.79900002 4279570710
0.031547435 0.06169191 0.79966664 4279570963
0.035066664 0.061717331 0.80000001 4279702039
0.037872002 0.061015997 0.80000001 4279898150
0.040677331 0.061015997 0.80000001 4279438350
0.014691181 0.065060943 0.79800004 4280491299
0.016789921 0.064361364 0.79800004 4280096544
0.019637331 0.064522661 0.80000001 4279833631
0.022442665 0.064522669 0.80000001 4279637014
0.025247999 0.064522661 0.80000001 4279571481
0.028017391 0.064442009 0.79900002 4279308311
0.031534869 0.064468898 0.79933333 4279176976
0.035066664 0.064522669 0.80000001 4279176199
0.011892861 0.067859262 0.79800004 4280361249
0.014260445 0.067561768 0.80000001 4280031773
0.016130665 0.067327991 0.80000001 4280031261
0.020338666 0.066626661 0.80000001 4279571483
0.022442665 0.066626661 0.80000001 4280098328
0.025247999 0.066626661 0.80000001 4279374858
0.028035361 0.067286357 0.79949999 4279569942
0.031547435 0.067300238 0.7996667 4279110416
0.035066664 0.066626661 0.80000001 4278716424
0.0069958 0.070657581 0.79800004 4278718741
0.0095685245 0.069783837 0.79866672 4280032018
-0.0091173332 0.072237335 0.80000001 4280228380
-0.0072406824 0.073112242 0.79933333 4280360223
-0.0041974802 0.0734559 0.79800004 4280686621
-0.0013991599 0.0734559 0.79800004 4280360472
0.0013991599 0.0734559 0.79800004 4279635977
0.0039672088 0.072584487 0.79866672 4280425993
0.03796668 0.062574714 0.80200005 4279635230
0.017577168 0.067496322 0.80200005 4279833646
0.019452065 0.067730688 0.80200005 4279570727
0.022498773 0.068199411 0.80200005 4279572767
0.02531112 0.068199411 0.80200005 4278782730
0.01148375 0.070543028 0.80200005 4279440148
0.014066337 0.070330806 0.80225003 4279768089
0.016884599 0.070352942 0.80250001 4279570455
0.0196987 0.070352942 0.80250001 4279373851
0.022512801 0.070352942 0.80250001 4279176726
0.025334571 0.070374638 0.80274999 4278716681
0.028132016 0.070330806 0.80225003 4279045141
-0.03585742 0.072417922 0.80200005 4287202186
-0.030270426 0.073916152 0.80300003 4285951853
-0.028862495 0.073916152 0.80300003 4285491302
-0.016890079 0.073189616 0.80275005 4280230438
-0.014074665 0.073189616 0.80274999 4279901984
-0.010836126 0.073316514 0.80260003 4280098334
0.0049216067 0.0738241 0.80200005 4280360204
0.0070352503 0.073167041 0.80250001 4279702042
0.0098554865 0.072508223 0.80300003 4279636234
0.017599083 0.073212191 0.80300003 4279440656
0.019710973 0.073212191 0.80300003 4279111951
-0.030270426 0.075324081 0.80300003 4280624421
-0.028158532 0.075324081 0.80300003 4279966238
-0.025342681 0.075324081 0.80300003 4279965720
-0.022526827 0.075324081 0.80300003 4280163604
-0.0098554865 0.075324081 0.80300003 4280098077
-0.0070396336 0.075324081 0.80300003 4279769112
-0.0042215884 0.075277179 0.80250001 4279439897
-0.0014070501 0.07598114 0.80250001 4279899401
0.0014079267 0.076028042 0.80300003 4279898645
0.0035198168 0.076028042 0.80300003 4279833108
-0.037402987 0.074100256 0.80500007 4286479485
-0.034580115 0.074100256 0.80500007 4287004023
-0.03175725 0.074100256 0.80500007 4287068523
-0.019054351 0.074100256 0.80500007 4280096030
0.010938609 0.073747396 0.80500007 4280029714
0.014114333 0.073394537 0.80500007 4279702294
0.016231483 0.073394537 0.80500007 4279570963
-0.03175725 0.075511687 0.80500007 4281477902
-0.019760069 0.075511687 0.80500007 4280098331
-0.0169372 0.076217405 0.80500007 4280098592
-0.014114333 0.076217405 0.80500007 4279836440
-0.010938609 0.076570265 0.80500007 4279705368
-0.0070571667 0.076923124 0.80500007 4278392333
-0.0042343 0.076923124 0.80500007 4278654756
0.0049400167 0.076217405 0.80500007 4279833109
0.0070571667 0.076217405 0.80500007 4279570203
0.01058575 0.076217405 0.80500013 4279570196
-0.0035285838 0.078334555 0.80500007 4279310119
-0.0014114333 0.078334555 0.80500007 4279767811
0.0016466723 0.078805037 0.80500007 4279702026
0.0042343 0.079040274 0.80500007 4279502860
-0.036879614 0.076596119 0.80900002 4280162310
-0.034000639 0.076502316 0.80800009 4280558092
-0.031205826 0.077305339 0.80900002 4279507997
-0.028368931 0.077305339 0.80900002 4279308061
-0.025468919 0.077114232 0.80700004 4280227620
-0.02263904 0.077114232 0.80700004 4280292890
-0.01980916 0.077114232 0.80700004 4280688413
-0.031205826 0.078723788 0.80900002 4280098097
-0.028368931 0.079433009 0.80900002 4279440679
-0.025532041 0.079433009 0.80900002 4279570982
-0.022667095 0.079335704 0.80800009 4279766299
-0.019858252 0.079433009 0.80900002 4280094734
-0.016990239 0.079286173 0.8075 4280096528
-0.013446897 0.079269662 0.80733341 4279834899
-0.0099168532 0.079335704 0.80800003 4279572242
-0.0070834667 0.079335704 0.80800009 4279112461
-0.0044847345 0.079538502 0.80766672 4279440419
-0.00141494 0.079944111 0.80700004 4279504897
-0.025532041 0.081560686 0.80900002 4279307285
-0.022695147 0.082269907 0.80900002 4279107851
-0.01914903 0.081560686 0.80900002 4279173130
-0.017021358 0.082269907 0.80900002 4279304968
-0.013475242 0.082269907 0.80900002 4279438352
-0.0099291261 0.082269907 0.80900002 4279307281
-0.0070922333 0.082269907 0.80900002 4279374357
-0.040525671 0.076785482 0.81100005 4281676333
-0.039814696 0.079629384 0.81100005 4279569171
-0.036970787 0.079629384 0.81100005 4279569429
-0.034126878 0.079629391 0.81100005 4279899674
-0.031282976 0.080340363 0.81100005 4280294437
-0.036970787 0.081762321 0.81100005 4278977550
-0.034126878 0.081762321 0.81100005 4279505170
-0.031282976 0.081762321 0.81100005 4279505940
-0.028439067 0.082473293 0.81100005 4279244305
-0.025595162 0.083184272 0.81100005 4278586120
-0.02014434 0.082710288 0.81100005 4279566342
-0.042154517 0.080022141 0.81500006 4280163101
-0.042154517 0.082880065 0.81500006 4278781991
-0.039961975 0.082779251 0.81400001 4278452246
-0.03706196 0.083389409 0.81300002 4278321413
-0.03421104 0.083389409 0.81300002 4279176201
-0.03136012 0.083389409 0.81300002 4278783501
-0.045839146 0.076637328 0.81700003 4283123517
-0.043690436 0.076637328 0.81700003 4284175442
-0.043690432 0.07950227 0.81700009 4280492823
0.021386283 -0.033607017 0.69700003 4278190080
0.01952512 -0.03172832 0.69600004 4279045893
0.02237113 -0.031660989 0.6972 4278190080
0.022594523 -0.028700607 0.69655555 4278191104
0.025088446 -0.028759925 0.69800001 4278190085
0.022587316 -0.025638992 0.69633341 4278256640
0.025052503 -0.02566354 0.69700003 4278190080
0.01952512 -0.02257592 0.69600004 4278521096
0.022598322 -0.022597155 0.69666672 4278520837
0.025064483 -0.022618584 0.69733334 4278520069
0.01952512 -0.01952512 0.69600004 4278719503
0.022598127 -0.019543821 0.69666672 4278718993
0.025088446 -0.019581225 0.69800001 4278717455
0.02210822 -0.034389444 0.70050001 4278190080
0.023933001 -0.032524332 0.70000005 4278190080
0.025160335 -0.031296998 0.70000005 4278190083
0.026406515 -0.028249267 0.70050001 4278255620
0.026387667 -0.025774002 0.70000005 4278190080
0.02765445 -0.025810819 0.70100003 4278190080
0.026387667 -0.022705667 0.70000005 4278256899
0.027654449 -0.022738105 0.70100003 4278190080
0.022835415 -0.035178881 0.70400006 4278190080
0.024035569 -0.033896316 0.70300001 4278190080
0.025902431 -0.031454362 0.70350003 4278190088
0.027753074 -0.028370246 0.70350003 4278190080
0.029007146 -0.02406976 0.70400006 4278190080
0.029007146 -0.02221824 0.70400006 4278190080
0.02413814 -0.03527882 0.70600003 4278190080
0.026632695 -0.032207418 0.70650005 4278190082
0.028484071 -0.03158075 0.7063334 4278190080
0.030658787 -0.031278152 0.70650005 4278190080
0.029089555 -0.028470628 0.70600003 4278190080
0.030754929 -0.028690672 0.70633334 4278190080
0.029110156 -0.026013769 0.70650005 4278190080
0.030658787 -0.025084501 0.70650005 4278190080
0.031344868 -0.022424256 0.70660007 4278190080
0.019521963 -0.037180133 0.70920002 4278190080
0.022407601 -0.036723569 0.71000004 4278190080
0.026068559 -0.034137398 0.708 4278190080
0.0317441 -0.0280095 0.71000004 4278190080
0.032159057 -0.02593472 0.71000004 4278190080
0.021877218 -0.039378989 0.71300006 4278190080
0.022439159 -0.038021911 0.71100003 4278190080
0.024309089 -0.036775291 0.71100003 4278190080
0.026179019 -0.035528667 0.71100003 4278190080
0.02851826 -0.034763049 0.71233338 4278190080
0.022564523 -0.040117145 0.71500003 4278190080
0.024480041 -0.039544679 0.71600002 4278190080
0.025700361 -0.037609 0.71500003 4278190080
0.02941918 -0.03567858 0.71400005 4278190080
0.019503787 -0.04299261 0.71766669 4278190080
0.02199995 -0.042114191 0.71700001 4278190080
0.023257088 -0.040857047 0.71700001 4278190080
0.0251428 -0.040228479 0.71700001 4278190080
0.027892902 -0.037959374 0.71766669 4278190080
0.030885844 -0.034667782 0.71900004 4278190080
0.032057069 -0.032057069 0.71700001 4278190080
0.033407137 -0.027734227 0.71900004 4278190080
0.016456787 -0.046205595 0.72200006 4278190080
0.019938031 -0.044623211 0.72200006 4278190080
0.022975681 -0.043212656 0.72133344 4278190080
0.0246168 -0.042290401 0.72000003 4278190080
0.027141599 -0.0397656 0.72000003 4278190080
0.0296664 -0.0372408 0.72000003 4278190080
0.031014714 -0.036711294 0.72200006 4278781190
0.032191198 -0.034084797 0.72000003 4279374865
0.033546526 -0.033546526 0.72200006 4280296704
0.033453599 -0.03156 0.72000003 4279111680
0.033453599 -0.0296664 0.72000003 4278190080
0.016503248 -0.047602996 0.72400004 4278190080
0.0190675 -0.046397585 0.72500002 4278190080
0.022245416 -0.045126416 0.72500002 4278190080
0.026058916 -0.042584084 0.72500002 4278190080
0.027330084 -0.042584084 0.72500002 4278190080
0.025987031 -0.04119895 0.72300005 4278190080
0.027927971 -0.040620349 0.72400004 4278190080
0.02979001 -0.038663633 0.72300005 4278190080
0.032370038 -0.036813863 0.72400004 4283321670
0.034275036 -0.034273285 0.72400004 4282600232
0.034908868 -0.03173621 0.72400004 4282599206
0.036863834 -0.031143583 0.72500002 4284635997
0.034860652 -0.029156182 0.72300005 4279702801
0.036796037 -0.02854982 0.72366667 4280097817
0.028081387 -0.045313146 0.72800004 4278190080
0.025493469 -0.043976232 0.72700006 4278190080
0.028959457 -0.043502305 0.7276001 4279768851
0.031272452 -0.043398507 0.72800004 4284175440
0.029557401 -0.041039396 0.72766668 4278781958
0.031272452 -0.040845655 0.72800004 4282004023
0.031910665 -0.038931012 0.72800004 4282003550
0.034463521 -0.037016377 0.72800004 4283979605
0.037335481 -0.036697268 0.72800004 4282337630
0.035101734 -0.035101734 0.72800004 4283785034
0.037399303 -0.034591161 0.72800004 4284178018
0.037016377 -0.032548882 0.72800004 4284702819
0.035101734 -0.027443174 0.72800004 4278190080
0.030078433 -0.045437634 0.73000002 4283452739
0.032638296 -0.043517731 0.73000002 4285030749
0.034391925 -0.043363731 0.73100001 4283783263
0.032638296 -0.040957868 0.73000002 4283385932
0.034582015 -0.040346101 0.73049998 4283979345
0.037151963 -0.040355306 0.73066664 4280822590
0.039037969 -0.039037969 0.73000002 4278190336
0.03775803 -0.03775803 0.73000002 4280103238
0.039037969 -0.03775803 0.73000002 4278191124
0.039037969 -0.033918235 0.73000002 4285164127
0.039037969 -0.031358365 0.73000002 4284177243
0.039037969 -0.028158534 0.73000002 4278256384
0.04048359 -0.031487238 0.73300004 4278847754
0.040949393 -0.028085181 0.73366666 4278190080
0.039895348 -0.026382407 0.73400003 4278190080
0.042395599 -0.00065224001 0.74400002 4278387968
-0.017322058 -0.073290214 0.76000005 4278190089
-0.020762974 -0.078363486 0.76400006 4278190080
-0.019125009 -0.076368533 0.76280004 4278190080
-0.016744334 -0.076354161 0.76400006 4278190080
-0.015364461 -0.07415022 0.76200002 4278190080
-0.018827293 -0.078671195 0.76700002 4278190080
-0.015445112 -0.075882517 0.76600003 4278190080
0.014102059 -0.064466566 0.76600003 4278190080
0.016127598 -0.064508639 0.7665 4278190080
0.018154889 -0.06455072 0.76700002 4278190080
0.043033816 -0.037654586 0.76700002 4278190089
0.04505102 -0.036982182 0.76700002 4278717189
0.043257952 -0.035189107 0.76700002 4278256640
0.04505102 -0.034964971 0.76700002 4278190848
0.043706216 -0.032947764 0.76700002 4278190080
0.04505102 -0.032947764 0.76700002 4278190080
0.049757846 -0.018154889 0.76700002 4282002463
0.051775057 -0.018154889 0.76700002 4284703083
0.049757846 -0.016810084 0.76700002 4280952090
0.051775057 -0.016810084 0.76700002 4284964958
0.047740635 -0.00067240332 0.76700002 4278257920
0.049085442 -0.00067240332 0.76700002 4281544769
0.047292367 0.0015689411 0.76700002 4279441937
0.049757846 0.0013448067 0.76700002 4283979099
0.047037549 0.0040313518 0.76650006 4280495398
0.049512383 0.0038082402 0.76666671 4283722598
-0.013483134 -0.076179706 0.76900005 4278190080
-0.011460664 -0.076179706 0.76900005 4278190080
-0.013483134 -0.074831396 0.76900005 4278190080
-0.011460664 -0.074831396 0.76900005 4278190080
0.043146029 -0.039775245 0.76900005 4278190088
0.045168497 -0.039775245 0.76900005 4281676328
0.046786468 -0.037887607 0.76900005 4283386673
0.047056131 -0.034112327 0.76900005 4281152292
0.043820184 -0.031011209 0.76900005 4278190080
0.04651681 -0.031011209 0.76900005 4279639058
0.04651681 -0.028314581 0.76900005 4278980104
0.047190964 -0.025617953 0.76900005 4278255616
0.049213439 -0.025617953 0.76900005 4280952365
0.047865123 -0.020224702 0.76900005 4278518272
0.049887598 -0.020224702 0.76900005 4280757541
0.051910065 -0.020224702 0.76900005 4284505440
0.049887598 -0.015505603 0.76900005 4280820763
0.049887598 -0.013483134 0.76900005 4280495134
0.049887598 -0.01011235 0.76900005 4280953384
0.051910065 -0.01011235 0.76900005 4284901993
0.047865123 -0.0074157231 0.76900005 4278190080
0.049887598 -0.0074157235 0.76900005 4280361507
0.051910065 -0.0080898805 0.76900005 4284637789
0.047415685 -0.0038202212 0.76900005 4278190336
0.049887598 -0.0040449402 0.76900005 4281284934
0.046966251 -0.0015730324 0.76900005 4278190336
0.049887598 -0.0013483134 0.76900005 4283387999
0.046516813 0.0006741567 0.76900005 4278190080
0.050561752 0.0047190967 0.76900005 4286219136
-0.016941583 -0.079286613 0.77300006 4278190080
-0.015545929 -0.07772965 0.77100003 4278190080
-0.013553267 -0.077931285 0.77300006 4278190080
-0.010490632 -0.076816604 0.77200007 4278190080
0.016263921 -0.067088671 0.77300006 4278190080
0.01829691 -0.067088671 0.77300006 4278190080
0.020051995 -0.064662062 0.77100009 4278190080
0.016897751 -0.062859632 0.77100003 4278190080
0.01960139 -0.062859632 0.77100009 4278190336
0.043069754 -0.043070924 0.77166671 4280100123
0.043258239 -0.041230511 0.77100003 4278190857
0.04528597 -0.041230511 0.77100003 4282336852
0.047989611 -0.03582323 0.77100003 4284572501
0.049469426 -0.033883169 0.77300006 4283914839
0.049341429 -0.031091858 0.77100003 4283585090
0.050693247 -0.025008669 0.77100003 4284244331
0.050017338 -0.02298094 0.77100003 4281284664
0.05204507 -0.02298094 0.77100003 4284441446
0.052180078 -0.015586257 0.77300006 4283519066
0.05204507 -0.013518199 0.77100003 4283454048
0.050824754 -0.011520277 0.77300006 4283849295
0.052180078 -0.011520277 0.77300006 4284901470
0.05204507 -0.00608319 0.77100003 4284440415
0.05204507 -0.00405546 0.77100003 4284902503
0.050693247 -0.00202773 0.77100003 4285165181
0.05204507 -0.00135182 0.77100003 4285888630
0.05204507 0.00135182 0.77100003 4286742145
-0.013588334 -0.080172047 0.77500004 4278255616
0.0047620535 -0.075512558 0.77600002 4278190336
0.0068029333 -0.075512558 0.77600002 4278849282
0.0040817601 -0.07347168 0.77600002 4278190080
0.0061226399 -0.07347168 0.77600002 4278190080
0.01834425 -0.070660219 0.77500004 4282465817
0.016284961 -0.068532541 0.77400005 4278190080
0.019242248 -0.06813921 0.77466673 4278255616
0.02103474 -0.067175463 0.77400005 4279634688
0.022983043 -0.064593852 0.77560008 4278190336
0.025715087 -0.064355746 0.77600002 4279635972
0.023356738 -0.061453164 0.77600002 4278190080
0.025834054 -0.061187387 0.77550006 4278190080
0.043483544 -0.046200335 0.77500004 4283519052
0.044105098 -0.044105098 0.77400005 4282927635
0.049597416 -0.038048211 0.77500004 4284570197
0.049533419 -0.035962623 0.77400005 4284702320
0.051702291 -0.034014665 0.77600002 4283717975
0.051702291 -0.031293493 0.77600002 4284111444
0.049597416 -0.028534625 0.77500004 4281744450
0.051021997 -0.028572321 0.77600002 4284441963
0.051929057 -0.026077911 0.77600002 4284636778
0.053604662 -0.018320579 0.77400005 4285295476
0.053604662 -0.016284961 0.77400005 4286084216
0.05510376 -0.01632704 0.77600002 4286215807
0.053604662 -0.0135708 0.77400005 4285033336
0.05510376 -0.013605867 0.77600002 4285756007
0.053604662 -0.010856641 0.77400005 4285559661
0.05510376 -0.010884693 0.77600002 4285493599
0.05365083 -0.0074692001 0.77466673 4285756015
0.05510376 -0.0081635201 0.77600002 4285033311
0.053743172 -0.0040817601 0.77600002 4285757813
0.053673916 -0.00135971 0.77500004 4285428078
0.053604662 0.0013570799 0.77400005 4285557872
