# .PCD v0.7 - Point Cloud Data file format
VERSION 0.7
FIELDS x y z rgba
SIZE 4 4 4 4
TYPE F F F U
COUNT 1 1 1 1
WIDTH 1026
HEIGHT 1
VIEWPOINT 0 0 0 1 0 0 0
POINTS 1026
DATA ascii
-0.15705836 -0.10258316 0.80700004 4278190080
-0.15422845 -0.10258316 0.80700004 4278190083
-0.15210605 -0.10258316 0.80700004 4278190080
-0.16595826 -0.10141893 0.80900002 4278190080
-0.16288495 -0.10094612 0.80900002 4278190081
-0.16028447 -0.10070971 0.80900002 4278190080
-0.15744758 -0.10070971 0.80900002 4278190080
-0.15461069 -0.10070971 0.80900002 4278190080
-0.15158617 -0.10058436 0.80800003 4278190080
-0.14866118 -0.10052255 0.8075 4278190080
-0.11814749 -0.099753268 0.80700004 4278190080
-0.11578926 -0.10022491 0.80699998 4278190080
-0.11248773 -0.10046074 0.8070001 4278190080
-0.10901745 -0.10052255 0.8075 4278453261
-0.106252 -0.10058435 0.80800009 4279902978
-0.15390146 -0.098582044 0.80900002 4278190080
-0.15177378 -0.098582044 0.80900002 4278190080
-0.1489369 -0.098582044 0.80900002 4278190080
-0.14586359 -0.098109223 0.80900002 4278190083
-0.1427671 -0.09768223 0.80860007 4278190080
-0.13954341 -0.097750962 0.80800009 4278190080
-0.13625872 -0.097772345 0.80700004 4278190080
-0.13300437 -0.097630858 0.80700004 4278190081
-0.13033579 -0.097750962 0.80800003 4278190080
-0.12750241 -0.097750962 0.80800003 4278190080
-0.12466901 -0.097750962 0.80800009 4278190080
-0.12183562 -0.097750962 0.80800003 4278190080
-0.11860617 -0.097633496 0.80820006 4278190080
-0.11520471 -0.097917184 0.80820006 4278190080
-0.11205728 -0.097872816 0.80900002 4279111182
-0.10922039 -0.097872823 0.80900002 4281611050
-0.1063835 -0.097872823 0.80900002 4283847762
-0.14184466 -0.095745146 0.80900002 4278190081
-0.13900778 -0.095745146 0.80900002 4278190080
-0.13593446 -0.095272332 0.80900002 4278190080
-0.13333398 -0.095035926 0.80900002 4278321156
-0.1304971 -0.095035926 0.80900002 4278386691
-0.1276602 -0.095035926 0.80900002 4278321152
-0.1248233 -0.095745146 0.80900002 4278321152
-0.12198641 -0.095745146 0.80900002 4278190080
-0.061854973 -0.14006241 0.81100005 4280757808
-0.064698875 -0.13650753 0.81100005 4279966740
-0.066120833 -0.13295265 0.81100005 4279576108
-0.064698875 -0.13366362 0.81100005 4280429070
-0.066120833 -0.13081971 0.81100005 4280628544
-0.064698875 -0.13081971 0.81100005 4281808685
-0.066594817 -0.12773882 0.81100005 4281612348
-0.066831812 -0.12513189 0.81100005 4281614658
-0.19694054 -0.12015506 0.81100005 4278190080
-0.071097665 -0.12157702 0.81100005 4282006061
-0.068395957 -0.12186141 0.81100005 4283389250
-0.19907348 -0.11802213 0.81100005 4278190080
-0.19622958 -0.11802213 0.81100005 4278190080
-0.19338565 -0.11802213 0.81100005 4278190080
-0.073230594 -0.11802213 0.81100005 4283520091
-0.071097665 -0.11802213 0.81100005 4281482547
-0.20191738 -0.1158892 0.81100005 4278190080
-0.19622956 -0.1158892 0.81100005 4278190088
-0.19338566 -0.11517823 0.81100005 4278190082
-0.19077873 -0.11494124 0.81100005 4278190080
-0.18769784 -0.11446725 0.81100005 4278190080
-0.073941574 -0.11517823 0.81100005 4283324748
-0.071808644 -0.1158892 0.81100005 4282796873
-0.19338566 -0.11304529 0.81100005 4278190080
-0.19054174 -0.11304529 0.81100005 4278255616
-0.18769786 -0.11233432 0.81100005 4278190080
-0.18485394 -0.11233431 0.81100005 4278190081
-0.182721 -0.11162334 0.81100005 4278190080
-0.076074511 -0.11162334 0.81100005 4281219363
-0.073941574 -0.11233432 0.81100005 4282535479
-0.18414296 -0.11020139 0.81100005 4278190080
-0.18201002 -0.10949041 0.81100005 4278190081
-0.17940313 -0.10925341 0.81100005 4278190081
-0.076785482 -0.10949041 0.81100005 4282204972
-0.18129905 -0.10735748 0.81100005 4278190080
-0.17845516 -0.1066465 0.81100005 4278190080
-0.17490026 -0.10593552 0.81100005 4278190080
-0.17205636 -0.10593552 0.81100005 4278256128
-0.17181937 -0.10403959 0.81100005 4278190080
-0.16921246 -0.10309162 0.81100005 4278190083
-0.16850148 -0.10095869 0.81100005 4278190081
-0.16636854 -0.10024771 0.81100005 4278190080
-0.16423562 -0.10024771 0.81100005 4278190336
-0.16850148 -0.098825753 0.81100005 4278190080
-0.16636854 -0.098114789 0.81100005 4278190080
-0.16328765 -0.098351777 0.81100005 4278190080
-0.16068073 -0.098114789 0.81100005 4278190094
-0.15783682 -0.098114789 0.81100005 4278190080
-0.15522991 -0.097877793 0.81100005 4278190080
-0.15143804 -0.097403802 0.81100005 4278190080
-0.14788315 -0.097403809 0.81100005 4278190085
-0.15143804 -0.095981859 0.81100005 4278190080
-0.14788315 -0.095981851 0.81100005 4278190080
-0.14480226 -0.09550786 0.81100005 4278190080
-0.14219534 -0.0945599 0.81100005 4278190082
-0.13911444 -0.094085909 0.81100005 4278190080
-0.13674451 -0.093611926 0.81100005 4278190080
-0.13366362 -0.093137942 0.81100005 4278386691
-0.13081971 -0.093137942 0.81100005 4278386691
-0.12797581 -0.093137942 0.81100005 4278190080
-0.12513189 -0.093848921 0.81100005 4278190080
-0.12157702 -0.094322912 0.81100005 4278190080
-0.11787994 -0.094844289 0.81100005 4279045647
-0.11517823 -0.0945599 0.81100005 4281808421
-0.11233431 -0.0945599 0.81100005 4282401088
-0.10949042 -0.0945599 0.81100005 4283124784
-0.10664651 -0.0945599 0.81100005 4284637295
-0.13864045 -0.091715991 0.81100005 4278190080
-0.13650753 -0.091715991 0.81100005 4278190080
-0.13366362 -0.091715991 0.81100005 4278190080
-0.13081971 -0.091715991 0.81100005 4278190080
-0.12797581 -0.091715991 0.81100005 4278190080
-0.060582049 -0.142546 0.81300002 4282139459
-0.061106879 -0.13957147 0.81366664 4281218608
-0.059302118 -0.14075322 0.81500006 4281019179
-0.063432969 -0.13684416 0.81300002 4282072117
-0.06152745 -0.13661747 0.81420004 4282464294
-0.063432969 -0.13399324 0.81300002 4281547550
-0.062160052 -0.13289391 0.81500006 4282794048
-0.06378933 -0.13007322 0.81300002 4282926651
-0.062160052 -0.13003597 0.81500006 4283124030
-0.064145699 -0.12686594 0.81300002 4280953889
-0.062160052 -0.12717804 0.81500006 4281414700
-0.066283889 -0.12330229 0.81300002 4281745469
-0.064145699 -0.12401502 0.81300002 4282402878
-0.062160052 -0.1243201 0.81500006 4281154091
-0.066759042 -0.12092652 0.81300002 4282139686
-0.064224601 -0.12131226 0.81400001 4281154095
-0.062160052 -0.12217665 0.81500006 4281155898
-0.069134809 -0.11831318 0.81300002 4281155365
-0.067037389 -0.11838551 0.81349999 4281614372
-0.065017991 -0.11931872 0.81500006 4281219111
-0.20241532 -0.11474953 0.81300002 4278190080
-0.1995644 -0.11546225 0.81300002 4278190093
-0.19671348 -0.11474953 0.81300002 4278190103
-0.070377924 -0.1154898 0.81420004 4282203701
-0.067161433 -0.11646079 0.81500006 4281286194
-0.20564453 -0.11281867 0.81450003 4278190080
-0.2026643 -0.11274897 0.81400001 4278190080
-0.20005533 -0.11288837 0.81500006 4278190081
-0.19707686 -0.11281867 0.81450003 4278190082
-0.19386256 -0.11189861 0.81300002 4278190080
-0.19101164 -0.11189861 0.81300002 4278190080
-0.20005533 -0.11074492 0.81500006 4278190081
-0.19648291 -0.11003044 0.81500006 4278190338
-0.19314867 -0.10979228 0.81500006 4278190080
-0.1905321 -0.10989455 0.81400001 4278190080
-0.18725511 -0.10995662 0.81340009 4278190083
-0.18459706 -0.10904769 0.81300002 4278190080
-0.19648294 -0.10788699 0.81500006 4278190081
-0.19291051 -0.10788698 0.81500006 4278190080
-0.19005257 -0.10788698 0.81500006 4278190080
-0.18695648 -0.10741066 0.81500006 4278190080
-0.18401286 -0.10663791 0.81420004 4278190080
-0.18136787 -0.10567822 0.81450003 4278190082
-0.17847472 -0.10351417 0.81433344 4278190080
-0.17561913 -0.10351417 0.81433344 4278190080
-0.17340642 -0.10275848 0.81400001 4278190080
-0.17862085 -0.10074215 0.81500006 4278190080
-0.17576291 -0.10074215 0.81500006 4278190080
-0.17233644 -0.10061767 0.81400001 4278190080
-0.17048216 -0.10057617 0.81366664 4278190080
-0.16967036 -0.097327828 0.81433338 4278190080
-0.1639279 -0.096931279 0.81300002 4278190080
-0.16107698 -0.096218549 0.81300002 4278190084
-0.15751334 -0.096218549 0.81300002 4278190080
-0.1546624 -0.096218549 0.81300002 4278190080
-0.16218773 -0.095026284 0.81500006 4278190080
-0.15980612 -0.094549961 0.81500006 4278190080
-0.15709034 -0.094253495 0.81450003 4278190080
-0.15413904 -0.094195202 0.81400001 4278190080
-0.15119213 -0.09413778 0.81349999 4278452993
-0.14833859 -0.09413778 0.81349999 4278190080
-0.14563449 -0.093842782 0.81300002 4278190080
-0.142546 -0.093367629 0.81300002 4278190080
-0.14040782 -0.093367629 0.81300002 4278190081
-0.12045137 -0.093367629 0.81300002 4278190080
-0.11902592 -0.093367629 0.81300002 4278387459
-0.15361391 -0.092168353 0.81500006 4278190080
-0.15147048 -0.092168353 0.81500006 4278190080
-0.14861253 -0.092168353 0.81500006 4278190080
-0.14575461 -0.092168353 0.81500006 4278190080
-0.14280945 -0.091397323 0.81450003 4278255617
-0.14004779 -0.091066085 0.81366664 4278190080
-0.13684416 -0.090516709 0.81300002 4278190080
-0.13399324 -0.090516709 0.81300002 4278190592
-0.13042958 -0.090516709 0.81300002 4278190080
-0.12662835 -0.090991862 0.81300002 4278256899
-0.12416756 -0.091340773 0.81400001 4278387980
-0.12131313 -0.09134078 0.81400001 4279572246
-0.1184587 -0.09134078 0.81400001 4281284401
-0.11560428 -0.091340773 0.81400001 4283191087
-0.11274984 -0.091340773 0.81400001 4283126607
-0.10989543 -0.091340773 0.81400001 4281685322
-0.10637035 -0.09137848 0.81433344 4283258194
-0.13932426 -0.089310423 0.81500006 4278190080
-0.13684416 -0.089091249 0.81300002 4278190080
-0.13344356 -0.088486351 0.81400001 4282198581
-0.13050979 -0.0887888 0.81350005 4283385400
-0.12717804 -0.089310423 0.81500006 4284440917
-0.1243201 -0.089310423 0.81500006 4283059795
-0.12146217 -0.089310423 0.81500006 4280887593
-0.11860424 -0.089310423 0.81500006 4279904295
-0.10931595 -0.089310423 0.81500006 4285237140
-0.10788698 -0.089310423 0.81500006 4286153836
-0.058731407 -0.1389499 0.81700003 4282004537
-0.060880113 -0.13536873 0.81700003 4281016349
-0.058970153 -0.13632372 0.81700009 4281805099
-0.060880113 -0.13322002 0.81700003 4281543981
-0.058970153 -0.13298127 0.81700009 4281085735
-0.060880113 -0.13035506 0.81700003 4281742377
-0.058731407 -0.13035508 0.81700003 4281545769
-0.060880113 -0.12749013 0.81700003 4280164890
-0.059447646 -0.12749013 0.81700003 4280099614
-0.060880113 -0.12462518 0.81700003 4280627747
-0.059447646 -0.12534142 0.81700003 4279642414
-0.061596349 -0.12176023 0.81700003 4280035623
-0.064222552 -0.11865655 0.81700009 4280429343
-0.062312588 -0.11961152 0.81700003 4280623388
-0.067326248 -0.1153141 0.81700003 4280889646
-0.065177538 -0.11674657 0.81700003 4281218861
-0.20842487 -0.11101668 0.81700003 4278190080
-0.20555992 -0.11101668 0.81700009 4278190080
-0.20269498 -0.11101668 0.81700003 4278190336
-0.06983307 -0.11209104 0.81700003 4280628269
-0.067564994 -0.11340413 0.81700009 4280494888
-0.20914111 -0.10958421 0.81700003 4278190089
-0.20555992 -0.10958421 0.81700003 4278190336
-0.20173998 -0.10910672 0.81700009 4278190336
-0.19983003 -0.10886797 0.81700003 4278190088
-0.07019119 -0.10958421 0.81700003 4280297784
-0.2012625 -0.10671926 0.81700003 4278190336
-0.19911379 -0.10671926 0.81700003 4278190080
-0.19624886 -0.10600303 0.81700003 4278321152
-0.1933839 -0.10600303 0.81700003 4278255873
-0.19051895 -0.10600303 0.81700003 4278190080
-0.18789275 -0.10576429 0.81700009 4278190080
-0.1855053 -0.10528679 0.81700003 4278321666
-0.19553262 -0.10385431 0.81700003 4278190080
-0.19314516 -0.10337683 0.81700009 4278190082
-0.19051895 -0.10313807 0.81700003 4278190080
-0.187654 -0.10313807 0.81700003 4278190080
-0.18478906 -0.10313807 0.81700003 4278190080
-0.1819241 -0.10313807 0.81700003 4278190080
-0.18765402 -0.10098937 0.81700003 4278190080
-0.18455033 -0.10051188 0.81700009 4278190081
-0.1819241 -0.10027313 0.81700003 4278190081
-0.17905918 -0.099556893 0.81700003 4278190080
-0.17547798 -0.099556893 0.81700009 4278190080
-0.17905918 -0.098124422 0.81700003 4278190080
-0.17519149 -0.097551428 0.81700003 4278190081
-0.17213553 -0.097169437 0.81700009 4278190080
-0.094543234 -0.096691951 0.81700003 4284506206
-0.091678292 -0.096691951 0.81700003 4284111702
-0.17189679 -0.095259473 0.81700003 4278190091
-0.16115326 -0.093827002 0.81700003 4278190080
-0.097169437 -0.094304495 0.81700009 4283520339
-0.094781972 -0.094781987 0.81700009 4283585879
-0.091678292 -0.095259473 0.81700003 4283124556
-0.089529589 -0.095259473 0.81700003 4281479732
-0.16258572 -0.092394531 0.81700003 4278190080
-0.16019827 -0.091917038 0.81700009 4278190080
-0.15757206 -0.091678292 0.81700003 4278190080
-0.15494587 -0.091439545 0.81700009 4278190080
-0.15184218 -0.090962052 0.81700003 4278190080
-0.14897722 -0.090962052 0.81700003 4278190080
-0.14611229 -0.090962052 0.81700003 4278190080
-0.098124422 -0.092394531 0.81700003 4283782724
-0.15470713 -0.089529589 0.81700003 4278190080
-0.15184218 -0.089529589 0.81700003 4278190080
-0.14897722 -0.089529589 0.81700003 4278190080
-0.14611229 -0.08881335 0.81700003 4278190080
-0.1425311 -0.088813342 0.81699997 4278190081
-0.1389499 -0.08809711 0.81700003 4278190851
-0.13608497 -0.08809711 0.81700003 4279110913
-0.12963884 -0.08809711 0.81700003 4284831312
-0.12749013 -0.08809711 0.81700003 4283783769
-0.12462518 -0.08809711 0.81700003 4282993748
-0.12176023 -0.08809711 0.81700003 4280689962
-0.11889529 -0.08809711 0.81700003 4279246089
-0.11603034 -0.08881335 0.81700003 4284045658
-0.11244916 -0.088813342 0.81699997 4283257682
-0.10886797 -0.08809711 0.81700003 4284309341
-0.14539605 -0.086664632 0.81700003 4278321156
-0.14324734 -0.086664632 0.81700003 4280359708
-0.1389499 -0.086664632 0.81700003 4283717162
-0.13608497 -0.086664632 0.81700003 4284242229
-0.13322002 -0.086664632 0.81700003 4284108647
-0.13035506 -0.086664632 0.81700003 4283255600
-0.12749013 -0.0859484 0.81700003 4282400821
-0.12462518 -0.0859484 0.81700003 4281479470
-0.12176023 -0.0859484 0.81700003 4280099879
-0.11889529 -0.0859484 0.81700003 4279048719
-0.11603034 -0.086664632 0.81700003 4283454554
-0.11388163 -0.086664632 0.81700003 4284243025
-0.12176023 -0.08379969 0.81700003 4283849016
-0.11961152 -0.08379969 0.81700003 4282992971
-0.058157191 -0.14216202 0.81900007 4280559654
-0.056070723 -0.14233561 0.82000005 4280296732
-0.05600322 -0.13929006 0.81900007 4280757280
-0.053980753 -0.1396302 0.82100004 4280429839
-0.058157191 -0.13570012 0.81900007 4281476900
-0.056036972 -0.13650095 0.81950003 4280756507
-0.058157191 -0.13426414 0.81900007 4281085222
-0.056070723 -0.13370919 0.82000005 4280362777
-0.056287553 -0.13102047 0.81966668 4280821519
-0.058157191 -0.12780222 0.81900007 4279770392
-0.05685972 -0.12811431 0.82100004 4279177732
-0.058683187 -0.12479204 0.81966668 4278849040
-0.061029151 -0.12134031 0.81900007 4278257418
-0.059665933 -0.12220646 0.82000005 4278783500
-0.063901111 -0.11703237 0.81900007 4279113229
-0.061663151 -0.11829618 0.81980008 4278847490
-0.064658113 -0.11494809 0.81950003 4279112713
-0.061859794 -0.11508836 0.82050002 4278190080
-0.067251734 -0.11176711 0.81900007 4278915084
-0.064776897 -0.11227996 0.82100004 4278190080
-0.061897926 -0.11227996 0.82100004 4278190080
-0.20821711 -0.10841649 0.81900007 4278190080
-0.20558448 -0.10889515 0.81900007 4278190336
-0.20319118 -0.10841649 0.81900007 4278651136
-0.070363022 -0.10841649 0.81900007 4279704094
-0.067531824 -0.10920066 0.81950003 4278190080
-0.064776897 -0.10940099 0.82100004 4278190080
-0.21160454 -0.10652201 0.82100004 4278190083
-0.20872557 -0.10652201 0.82100004 4278190080
-0.20559588 -0.10639139 0.82000005 4278190080
-0.20271252 -0.10602319 0.81900007 4278190080
-0.19960123 -0.10554454 0.81900007 4278190080
-0.072995655 -0.10602319 0.81900007 4279441432
-0.070448056 -0.10639227 0.82000005 4278190080
-0.067895792 -0.10676193 0.82100004 4278190080
-0.20584659 -0.10436279 0.82100004 4278190080
-0.20256348 -0.10379821 0.82033342 4278190080
-0.19960123 -0.10339057 0.81900007 4278190080
-0.1969686 -0.10315124 0.81900007 4278190080
-0.19457529 -0.10267258 0.81900007 4278190087
-0.075867608 -0.10315124 0.81900007 4279508010
-0.073368669 -0.10357949 0.82050002 4278190336
-0.070534848 -0.10364304 0.82100004 4278190080
-0.19984582 -0.1013602 0.82000005 4278190598
-0.19616966 -0.10083918 0.81966668 4278190080
-0.19337426 -0.10064046 0.82000005 4278190088
-0.19074602 -0.10075793 0.81900007 4278255616
-0.18811339 -0.099800617 0.81900007 4278190080
-0.18595941 -0.099800617 0.81900007 4278190080
-0.079026684 -0.10057953 0.81950009 4279572251
-0.076470174 -0.10092157 0.82033342 4278190080
-0.073413819 -0.10076407 0.82100004 4278190080
-0.19217147 -0.098604836 0.82100004 4278190080
-0.18977992 -0.097764999 0.82000005 4278190080
-0.18787406 -0.097885974 0.81900007 4278190080
-0.18452342 -0.097646646 0.81900007 4278190082
-0.1811728 -0.097407319 0.81900007 4278190083
-0.17806152 -0.096928656 0.81900007 4278190080
-0.081900388 -0.097705826 0.81950003 4279376412
-0.079411685 -0.098125011 0.82100004 4278190080
-0.18739539 -0.095492676 0.81900007 4278190080
-0.18452342 -0.094774686 0.81900007 4278190080
-0.18093348 -0.094774686 0.81900007 4278190080
-0.17806153 -0.094774678 0.81900007 4278190080
-0.17518955 -0.094774678 0.81900007 4278190080
-0.17252713 -0.094171539 0.82000005 4278190086
-0.16948216 -0.094688475 0.82033342 4278190083
-0.094056696 -0.094056696 0.81900007 4283653466
-0.091902725 -0.094056696 0.81900007 4283125583
-0.08879143 -0.094535351 0.81900007 4281678140
-0.085543968 -0.09489011 0.81999999 4279442193
-0.082290657 -0.095246039 0.82100004 4278190080
-0.18353455 -0.092846893 0.82100004 4278190080
-0.18113542 -0.09236706 0.82100004 4278190080
-0.17827892 -0.092014059 0.82000005 4278190080
-0.17540346 -0.092014059 0.82000005 4278386689
-0.17345814 -0.092846893 0.82100004 4278190080
-0.16913968 -0.092846893 0.82100004 4278190080
-0.097407319 -0.091663398 0.81900007 4283191111
-0.094774686 -0.091902725 0.81900007 4283126093
-0.092014939 -0.092014059 0.82000005 4282600778
-0.088491909 -0.092089444 0.82066673 4278454280
-0.085649461 -0.092846893 0.82100004 4278190080
-0.15795779 -0.089030758 0.81900007 4278190080
-0.15508583 -0.088312775 0.81900007 4278190080
-0.15149592 -0.088312775 0.81900007 4278190080
-0.14862394 -0.088312775 0.81900007 4278190080
-0.097765587 -0.088419437 0.82000011 4281611838
-0.094890401 -0.08913859 0.82000005 4279312168
-0.092127144 -0.089967921 0.82100004 4278190092
-0.089967921 -0.089967921 0.82100004 4278190080
-0.15497215 -0.086467683 0.81966668 4278190080
-0.1514959 -0.086158805 0.81900007 4278190336
-0.14802633 -0.085509203 0.8196668 4280820774
-0.14521107 -0.084825397 0.82000005 4280294430
-0.14215729 -0.085235678 0.81980008 4281018656
-0.13946015 -0.084825397 0.82000005 4283124532
-0.13658467 -0.084825397 0.82000005 4283387965
-0.13354614 -0.084722817 0.81900007 4283059292
-0.13075353 -0.084774107 0.81950003 4281350716
-0.12780222 -0.084004834 0.81900007 4282729279
-0.12493026 -0.084004834 0.81900007 4283914071
-0.11751103 -0.084483497 0.81900007 4281610775
-0.1148784 -0.084722824 0.81900007 4283321912
-0.14538816 -0.082770482 0.82100004 4281347633
-0.14250919 -0.082770482 0.82100004 4279176981
-0.14034994 -0.082770482 0.82100004 4282265869
-0.13603149 -0.082770482 0.82100004 4285225554
-0.13387227 -0.082770482 0.82100004 4283518295
-0.13075338 -0.082290657 0.82100004 4283453002
-0.12795827 -0.081949919 0.82000005 4284505700
-0.12468146 -0.081826136 0.82020009 4283781200
-0.1214876 -0.081949919 0.82000005 4283650376
-0.11913988 -0.082223445 0.82033342 4282992967
-0.067820683 -0.1933611 0.82300001 4278981127
-0.069985174 -0.18758912 0.82300001 4278190080
-0.052669257 -0.14285633 0.82300001 4279112964
-0.052669257 -0.13997035 0.82300001 4278192128
-0.054112248 -0.13708436 0.82300001 4278720774
-0.052669257 -0.13708436 0.82300001 4278190080
-0.054112244 -0.13347688 0.82300001 4278783759
-0.055555243 -0.13059089 0.82300001 4278190080
-0.056998234 -0.12626192 0.82300001 4278190080
-0.058441229 -0.12337592 0.82300001 4278190080
-0.056998234 -0.12481891 0.82300001 4278190080
-0.059162725 -0.12121144 0.82300001 4278190080
-0.05988422 -0.11832544 0.82300001 4278190080
-0.059403222 -0.11519896 0.82300001 4278190080
-0.21500599 -0.10461701 0.82300001 4278190080
-0.21212003 -0.10461701 0.82300001 4278190080
-0.20851253 -0.10389552 0.82300001 4278190084
-0.20490505 -0.10317402 0.82300001 4278190849
-0.20779103 -0.10173102 0.82300001 4278190080
-0.20466454 -0.10125003 0.82300001 4278190081
-0.20225956 -0.10076904 0.82300001 4278191372
-0.19913307 -0.10028803 0.82300001 4278190351
-0.19696859 -0.10028803 0.82300001 4278190081
-0.075757146 -0.10028803 0.82300001 4278190080
-0.19913307 -0.098845042 0.82300001 4278190099
-0.19624709 -0.098845042 0.82300001 4278190080
-0.1940826 -0.098845042 0.82300001 4278190080
-0.078643136 -0.097402051 0.82300001 4278190080
-0.076478645 -0.09812355 0.82300001 4278190084
-0.18686762 -0.093073063 0.82300001 4278190080
-0.18542464 -0.093073063 0.82300001 4278190080
-0.1724377 -0.093073063 0.82300001 4278190080
-0.17099471 -0.093073063 0.82300001 4278190080
-0.084415108 -0.093073063 0.82300001 4278190080
-0.08201012 -0.093554057 0.82300001 4278190080
-0.079605125 -0.095478058 0.82300001 4278190080
-0.18446265 -0.091149084 0.82300001 4278190085
-0.18253866 -0.09090858 0.82300001 4278190088
-0.17604518 -0.09018708 0.82300001 4278190081
-0.17339969 -0.091149084 0.82300001 4278190081
-0.16955172 -0.09090858 0.82300001 4278190080
-0.08802259 -0.09018708 0.82300001 4278190336
-0.085136607 -0.09090858 0.82300001 4278190080
-0.094155312 -0.087661833 0.82300001 4278190087
-0.09090858 -0.08802259 0.82300001 4278190080
-0.10317402 -0.084415108 0.82300001 4279704071
-0.10100953 -0.085136607 0.82300001 4280097815
-0.09812355 -0.085858107 0.82300001 4278781458
-0.094516061 -0.085858107 0.82300001 4278190083
-0.14574233 -0.081529118 0.82300001 4282597434
-0.14285633 -0.081529118 0.82300001 4280754974
-0.13972984 -0.08201012 0.82300001 4281741087
-0.13780586 -0.082972117 0.82300001 4281870111
-0.13347688 -0.081529118 0.82300001 4282860349
-0.11760395 -0.082250617 0.82300001 4278912535
-0.11543946 -0.082250617 0.82300001 4280951081
-0.11255348 -0.082972117 0.82300001 4281546036
-0.108946 -0.082972117 0.82300001 4281612336
-0.1067815 -0.082972117 0.82300001 4282663481
-0.10461701 -0.082972117 0.82300001 4281543458
-0.1327554 -0.080086127 0.82300001 4282072120
-0.1298694 -0.080086127 0.82300001 4284572254
-0.12674291 -0.079605125 0.82300001 4284239944
-0.12433791 -0.079605125 0.82300001 4283120690
-0.12121144 -0.080086127 0.82300001 4282201906
-0.11832544 -0.080086127 0.82300001 4281216560
-0.071601748 -0.19744724 0.82500005 4278190336
-0.070155248 -0.190938 0.82500005 4278190080
-0.067985505 -0.190938 0.82500005 4278585605
-0.065815754 -0.190938 0.82500005 4278457600
-0.067985505 -0.188045 0.82500005 4278782475
-0.065092504 -0.188045 0.82500005 4279247361
-0.062922746 -0.18587525 0.82500005 4278719238
-0.051475238 -0.14500067 0.82700002 4278190848
-0.049300224 -0.14500067 0.82700002 4278190080
-0.05135075 -0.14175701 0.82500005 4278190080
-0.049300224 -0.14210066 0.82700002 4278190080
-0.05135075 -0.13886401 0.82500005 4278190080
-0.051832914 -0.13572992 0.82500005 4278190080
-0.052074 -0.13307801 0.82500005 4278190080
-0.054725915 -0.12994392 0.82500005 4278190080
-0.052074 -0.13018501 0.82500005 4278190080
-0.054967001 -0.12729201 0.82500005 4278190080
-0.057136752 -0.12367576 0.82500005 4278190080
-0.054967001 -0.12439901 0.82500005 4278256384
-0.057618916 -0.12126491 0.82500005 4278190080
-0.219804 -0.10302499 0.82566673 4278190080
-0.21723801 -0.10282511 0.82600009 4278190080
-0.21434149 -0.10282511 0.82600009 4278190080
-0.211189 -0.10342475 0.82500005 4278190080
-0.21914476 -0.099808499 0.82500005 4278190080
-0.21723711 -0.099929482 0.82600003 4278190080
-0.21460098 -0.10005046 0.82700002 4278190080
-0.21144529 -0.10065243 0.82600003 4278190080
-0.208296 -0.099808507 0.82500005 4278190081
-0.20564409 -0.099567413 0.82500005 4278190085
-0.20251 -0.099085256 0.82500005 4278190103
-0.21914476 -0.097638756 0.82500005 4278190080
-0.21736906 -0.097091272 0.82650006 4278190080
-0.21532598 -0.097875446 0.82700002 4278190080
-0.21170098 -0.097150445 0.82700002 4278190080
-0.20854847 -0.0970321 0.82600003 4278190080
-0.20565197 -0.0970321 0.82600003 4278190080
-0.20275547 -0.0970321 0.82600003 4278190081
-0.199617 -0.096915506 0.82500005 4278190081
-0.196724 -0.096915498 0.82500005 4278190082
-0.19383101 -0.096915498 0.82500005 4278190082
-0.190938 -0.096192248 0.82500005 4278190080
-0.21097597 -0.094250433 0.82700002 4278190080
-0.20880094 -0.094250433 0.82700002 4278190080
-0.20590094 -0.094250433 0.82700002 4278190080
-0.20300093 -0.094250433 0.82700002 4278190082
-0.20010093 -0.094250433 0.82700002 4278190081
-0.19647591 -0.094250433 0.82700008 4278190080
-0.19309254 -0.094008766 0.82699996 4278190080
-0.19085062 -0.094338976 0.82566673 4278190080
-0.19575089 -0.092075422 0.82700002 4278190080
-0.18081251 -0.090406254 0.82500005 4278190080
-0.17864275 -0.090406254 0.82500005 4278190080
-0.17285676 -0.090406254 0.82500005 4278190080
-0.17523867 -0.088342577 0.82600009 4278190080
-0.17223826 -0.088289544 0.82550007 4278190080
-0.099808499 -0.084620252 0.82500005 4278190091
-0.096915498 -0.084620252 0.82500005 4278190089
-0.094022498 -0.084620252 0.82500005 4278190080
-0.13814075 -0.081727251 0.82500005 4283579963
-0.13669425 -0.081727251 0.82500005 4285290325
-0.112827 -0.081727251 0.82500005 4280556308
-0.11017508 -0.082209416 0.82500005 4281217323
-0.107041 -0.081727251 0.82500005 4278716426
-0.10354923 -0.082187936 0.82600003 4278257408
-0.10033923 -0.082674399 0.82580006 4278190592
-0.097092144 -0.082599968 0.82650006 4278190081
-0.14232841 -0.079778597 0.82580006 4279440145
-0.13886401 -0.079557501 0.82500005 4281742883
-0.13605385 -0.079605281 0.82550007 4285556828
-0.13307801 -0.078834251 0.82500005 4281546030
-0.13018501 -0.078834251 0.82500005 4283059017
-0.12801525 -0.078834251 0.82500005 4281676080
-0.12367576 -0.078834251 0.82500005 4282202426
-0.12150601 -0.078834251 0.82500005 4282926654
-0.118613 -0.078834251 0.82500005 4281018403
-0.11572 -0.079557501 0.82500005 4279504399
-0.11289494 -0.079605281 0.82550007 4279833357
-0.10965891 -0.07952752 0.82620013 4279570446
-0.1061817 -0.079817519 0.82620013 4278190080
-0.10295047 -0.079750367 0.82700002 4278190080
-0.14137565 -0.077575356 0.82700002 4278650381
-0.13920063 -0.076850355 0.82700002 4280622348
-0.13630062 -0.076850355 0.82700002 4283451442
-0.1331591 -0.076710522 0.82550007 4281745217
-0.13018501 -0.0766645 0.82500005 4281744956
-0.12736958 -0.076710522 0.82550001 4283124295
-0.12439901 -0.0766645 0.82500005 4282795327
-0.12157921 -0.076710522 0.82550007 4282203961
-0.11875677 -0.076756552 0.82600003 4282927952
-0.11600053 -0.076850355 0.82700002 4280166430
-0.11310052 -0.076850355 0.82700002 4278190080
-0.10947549 -0.077575356 0.82699996 4278321666
-0.10657549 -0.077575356 0.82700002 4278190080
-0.13557562 -0.074675336 0.82700002 4282202426
-0.13315894 -0.074192002 0.82699996 4282665046
-0.1305006 -0.073950335 0.82700002 4282072632
-0.12760058 -0.073950335 0.82700002 4285426010
-0.12462562 -0.073905185 0.82650006 4282663750
-0.12172648 -0.073905185 0.82650006 4281547843
-0.11914221 -0.074192002 0.82699996 4281152316
-0.11600053 -0.074675336 0.82700002 4281414186
-0.11382552 -0.074675336 0.82700002 4278190080
-0.21487772 -0.097143136 0.82900006 4278190080
-0.21293971 -0.095205128 0.82900006 4278190080
-0.20712565 -0.092298098 0.82900006 4278190080
-0.20494539 -0.092298098 0.82900006 4278190080
-0.20203836 -0.092298098 0.82900006 4278190080
-0.19888909 -0.091813594 0.82900006 4278190080
-0.11119377 -0.07630945 0.82900006 4278190080
-0.1090135 -0.07630945 0.82900006 4278190080
-0.13687252 -0.073886931 0.82900006 4280821265
-0.13444999 -0.073402427 0.82900006 4283125575
-0.11773458 -0.073402427 0.82900006 4278192384
-0.11482756 -0.073402427 0.82900006 4278190080
-0.11192053 -0.074855939 0.82900006 4278190080
-0.13590349 -0.071948916 0.82900006 4280889889
-0.13372323 -0.071948916 0.82900006 4282797127
-0.13081621 -0.071222156 0.82900006 4281807395
-0.12790918 -0.071948916 0.82900006 4284570191
-0.12500215 -0.071948916 0.82900006 4281216046
-0.12209512 -0.071948916 0.82900006 4283190349
-0.11991484 -0.071948916 0.82900006 4278257159
-0.05172421 -0.15735817 0.83100003 4278652675
-0.049657911 -0.1577369 0.83300006 4278190080
-0.05172421 -0.15444413 0.83100003 4278914052
-0.049657911 -0.15481584 0.83300006 4278190080
-0.04956805 -0.1516217 0.83150005 4278190080
-0.11801861 -0.072122492 0.83100003 4278190848
-0.11510458 -0.072122492 0.83100003 4278190080
-0.11219054 -0.072851002 0.83100003 4278190084
-0.13390996 -0.070235319 0.83166671 4282862129
-0.1311318 -0.069208443 0.83100003 4279968019
-0.12759095 -0.069992483 0.83166671 4280755999
-0.12399573 -0.070020251 0.83200008 4278322176
-0.12107819 -0.070020251 0.83200008 4278190080
-0.11816064 -0.070020244 0.83200002 4278190080
-0.13290793 -0.067914493 0.83300006 4278190080
-0.12998688 -0.067914493 0.83300006 4278190080
-0.12706582 -0.067914493 0.83300006 4278190080
-0.12414476 -0.067914493 0.83300006 4278190080
-0.12122372 -0.067184232 0.83300006 4278190080
-0.046849068 -0.16104367 0.83500004 4278190080
-0.044653017 -0.16031165 0.83500004 4278190080
-0.046849068 -0.1581156 0.83500004 4278190080
-0.13322704 -0.066613518 0.83500004 4278190080
-0.13029897 -0.066613518 0.83500004 4278190080
-0.12737089 -0.066613518 0.83500004 4278190080
-0.12444283 -0.066613518 0.83500004 4278190080
-0.12956695 -0.065149486 0.83500004 4278190083
-0.044052057 -0.1629947 0.83750004 4278190080
-0.18691905 -0.082067393 0.83833337 4281347627
-0.18417627 -0.081448466 0.83700001 4280760357
-0.18187471 -0.082002521 0.83766669 4279771666
-0.1860874 -0.080172047 0.83900005 4281742375
-0.18388084 -0.080172047 0.83900005 4280693517
-0.18093875 -0.080172047 0.83900005 4282269468
-0.17778361 -0.079340965 0.83800006 4282069272
-0.1755797 -0.079340965 0.83800006 4281674528
-0.13354614 -0.064571761 0.83700001 4278190080
-0.13085565 -0.064327173 0.83700007 4278190081
-0.18751402 -0.079380117 0.84100002 4281215527
-0.18431917 -0.078888603 0.84100002 4280231168
-0.18137005 -0.078888603 0.84100002 4281348621
-0.17915823 -0.078888603 0.84100002 4282069539
-0.1894801 -0.077414043 0.84100002 4278190080
-0.18726826 -0.077414043 0.84100002 4280423183
-0.18431917 -0.076676771 0.84100002 4279964930
-0.18210733 -0.077414043 0.84100002 4281019648
-0.17768367 -0.077414043 0.84100002 4283188519
-0.18993072 -0.076120086 0.84300005 4278190080
-0.18771362 -0.076120086 0.84300005 4278386688
-0.18184258 -0.076733172 0.84433335 4281019150
-0.15172499 -0.06658078 0.84700006 4278190080
-0.15073495 -0.064600691 0.84700006 4278190080
-0.14850733 -0.063858151 0.84700006 4278190080
-0.15490393 -0.064046197 0.8495 4278190080
-0.15208326 -0.063760839 0.84900004 4278190080
-0.16999267 -0.066944025 0.85800004 4278190080
-0.16698396 -0.066944025 0.85800004 4278190080
-0.14879401 -0.16327742 0.75100005 4278190080
-0.16000964 -0.15734194 0.76050007 4278190080
-0.16321638 -0.15466014 0.76240003 4278190080
-0.12752239 -0.16030936 0.76639998 4278190080
-0.13348302 -0.15842682 0.76900005 4278190080
-0.14257826 -0.15399456 0.77520001 4278190080
-0.1798131 -0.13638654 0.77400005 4278190080
-0.18347056 -0.13572729 0.77800006 4278190080
-0.20061027 -0.12803453 0.78100002 4278190080
-0.20880839 -0.12775707 0.78350002 4278190080
-0.20783135 -0.12593754 0.78500003 4278190080
-0.21112064 -0.12694836 0.78700006 4278190080
-0.21465446 -0.1270404 0.78900003 4278190080
-0.21234883 -0.12657927 0.78900003 4278190080
-0.2085278 -0.12439724 0.78920001 4278190080
-0.21961114 -0.12494516 0.79400003 4278190080
-0.21724853 -0.12409129 0.7930001 4278190080
-0.21593352 -0.1249776 0.79200006 4278190080
-0.21717489 -0.12181284 0.79400003 4278190080
-0.21420543 -0.1213496 0.79280007 4278190080
-0.21148299 -0.12068135 0.79266673 4278190080
-0.22986412 -0.12686488 0.79600006 4281218094
-0.22353715 -0.12677184 0.79600006 4278190080
-0.22121106 -0.12421315 0.79600006 4278190080
-0.2198154 -0.12211968 0.79600006 4278190080
-0.21772194 -0.12072401 0.79600006 4278190081
-0.21748932 -0.11886314 0.79600006 4278190080
-0.21493062 -0.11863054 0.79600006 4278190080
-0.15114926 -0.11877011 0.79600006 4278190080
-0.15003274 -0.11653706 0.79600006 4278190080
-0.23003733 -0.12483733 0.80000001 4278519300
-0.22363241 -0.12475844 0.79800004 4278190080
-0.22512801 -0.12273332 0.80000001 4278190080
-0.22325777 -0.12179822 0.80000001 4278190080
-0.22134343 -0.12187859 0.79900002 4278190082
-0.22302398 -0.11992799 0.80000001 4278190080
-0.22021866 -0.11922666 0.80000001 4278190080
-0.21741332 -0.11712267 0.80000001 4278190080
-0.14901054 -0.11473112 0.79800004 4278190080
-0.22100359 -0.1178842 0.80200005 4278190080
-0.22104448 -0.11615396 0.80300003 4278190080
-0.21769755 -0.11525134 0.80260003 4278190080
-0.2231292 -0.11191789 0.80800003 4278190080
-0.16647463 -0.096455254 0.81500006 4278190080
-0.1697481 -0.095259473 0.81700003 4278190099
-0.1661669 -0.095259473 0.81700003 4278190080
-0.16354071 -0.094304495 0.81700009 4278190080
-0.16657367 -0.094056696 0.81900007 4278190080
-0.16660555 -0.092291676 0.82033342 4278190080
-0.16407488 -0.091737621 0.81966668 4278190080
-0.16154775 -0.091184735 0.81900007 4278190080
-0.16372889 -0.089415036 0.82033342 4278190080
-0.16074598 -0.088229358 0.82014292 4278190080
-0.15906328 -0.085649461 0.82100004 4278190080
-0.15701596 -0.086058579 0.82033342 4278190080
-0.19119661 -0.097402051 0.82300001 4278190080
-0.16666573 -0.09018708 0.82300001 4278190080
-0.16522273 -0.088744089 0.82300001 4278190080
-0.16377974 -0.08730109 0.82300001 4278190080
-0.16233675 -0.085858107 0.82300001 4278190080
-0.16089375 -0.085858107 0.82300001 4278190080
-0.15151429 -0.084415108 0.82300001 4282006830
-0.15079281 -0.082972117 0.82300001 4282466595
-0.1483878 -0.082491122 0.82300001 4283648089
-0.18876825 -0.094022498 0.82500005 4278190080
-0.19285089 -0.092075422 0.82700002 4278190080
-0.18995087 -0.091350421 0.82700002 4278190081
-0.18732175 -0.091129504 0.82500005 4278190080
-0.18587525 -0.090406254 0.82500005 4278190080
-0.18922587 -0.088450402 0.82700002 4278190080
-0.18714117 -0.088136852 0.82633334 4278190080
-0.18465142 -0.088342577 0.82600009 4278190080
-0.18150981 -0.088509142 0.82620013 4278190080
-0.17813517 -0.088342577 0.82600009 4278190080
-0.1692405 -0.088236511 0.82500005 4278190080
-0.16658859 -0.087995417 0.82500005 4278190080
-0.18632585 -0.086275391 0.82700002 4278190080
-0.18415084 -0.086275391 0.82700002 4278190080
-0.1754508 -0.086275391 0.82700002 4278321152
-0.1725508 -0.086275391 0.82700002 4278190080
-0.16965078 -0.086275391 0.82700002 4278190080
-0.16655001 -0.086171076 0.82600003 4278190592
-0.16417775 -0.086066753 0.82500005 4278190080
-0.16022573 -0.084825389 0.82700002 4278651904
-0.15805072 -0.084825389 0.82700002 4280493837
-0.1547755 -0.084620252 0.82500005 4282730772
-0.15490904 -0.082892045 0.82699996 4282927139
-0.15224691 -0.082275458 0.82566673 4282794031
-0.14971276 -0.081727251 0.82500005 4283779682
-0.15080069 -0.080475368 0.82700002 4284505938
-0.14772096 -0.079653054 0.82600003 4282729530
-0.14597289 -0.079862289 0.82566673 4282400827
-0.1962243 -0.090844586 0.82900006 4278190083
-0.19331728 -0.090844586 0.82900006 4278190080
-0.191137 -0.088664316 0.82900006 4278190081
-0.19041026 -0.086484045 0.82900006 4278190080
-0.18822998 -0.086484045 0.82900006 4278190080
-0.18168917 -0.086484045 0.82900006 4278190080
-0.17878215 -0.086484045 0.82900006 4278190080
-0.17006107 -0.085030533 0.82900006 4278190080
-0.16715404 -0.085030533 0.82900006 4278190080
-0.16352026 -0.085030533 0.82900006 4278190336
-0.16933431 -0.083577022 0.82900006 4278190080
-0.16788079 -0.083577022 0.82900006 4278321666
-0.16352025 -0.083577015 0.82900006 4278782989
-0.15915971 -0.083577022 0.82900006 4281216781
-0.15697944 -0.082850263 0.82900006 4282992674
-0.1562527 -0.080669992 0.82900006 4284244040
-0.15407242 -0.080669992 0.82900006 4281479964
-0.14898512 -0.07921648 0.82900006 4283320106
-0.14462458 -0.07921648 0.82900006 4282665789
-0.14244431 -0.077036202 0.82900006 4280035368
-0.13953727 -0.074855939 0.82900006 4279833614
-0.20568791 -0.091173336 0.83200002 4278190080
-0.20252579 -0.091063745 0.83100003 4278190080
-0.20034026 -0.091063745 0.83100003 4278190080
-0.20228295 -0.089822389 0.83300006 4278190080
-0.20009215 -0.089822389 0.83300006 4278190080
-0.19677044 -0.089263655 0.83233339 4278190080
-0.1939007 -0.088931262 0.83150005 4278190080
-0.19205926 -0.085440814 0.83300006 4278190086
-0.18986847 -0.085440814 0.83300006 4278190081
-0.18621716 -0.085440814 0.83300006 4278190080
-0.18402638 -0.085440814 0.83300006 4278190080
-0.18110532 -0.085440814 0.83300006 4278190080
-0.17797124 -0.085338242 0.83200002 4278190080
-0.17484239 -0.08523567 0.83100003 4278190080
-0.17265686 -0.08523567 0.83100003 4278190082
-0.17745399 -0.083980285 0.83300006 4278190080
-0.17526321 -0.083980285 0.83300006 4278190080
-0.17223915 -0.083199613 0.8325001 4279768847
-0.16942111 -0.082519755 0.83300006 4281544738
-0.16640589 -0.082108065 0.8318001 4281543976
-0.16338262 -0.081690431 0.83200008 4283189830
-0.16073331 -0.082370281 0.83150005 4279968283
-0.15808667 -0.082321629 0.83100003 4283388483
-0.16019681 -0.079550043 0.8325001 4281743154
-0.15773146 -0.079229452 0.83220005 4282138945
-0.15462998 -0.07877288 0.83200002 4282797881
-0.15171243 -0.07877288 0.83200002 4283058733
-0.14879489 -0.077314109 0.83200008 4283649849
-0.14576635 -0.076894715 0.83220005 4282009405
-0.1432599 -0.075642593 0.83233339 4282206026
-0.14288819 -0.073269755 0.833 4280491277
-0.14012684 -0.072982058 0.8325001 4280163084
-0.13768838 -0.072122492 0.83100003 4279572485
-0.13948031 -0.070835546 0.83300006 4278190081
-0.13639443 -0.070020244 0.83200002 4279505163
-0.13509873 -0.067914493 0.83300006 4278255619
-0.20423265 -0.090038046 0.83500004 4278190080
-0.19910854 -0.088574015 0.83500004 4278190080
-0.19544844 -0.087109983 0.83500004 4278190080
-0.19398442 -0.087109983 0.83500004 4278190080
-0.19252038 -0.084181912 0.83500004 4278779904
-0.19032434 -0.084181912 0.83500004 4278255616
-0.18739626 -0.084913932 0.83500004 4278190080
-0.18446819 -0.084181912 0.83500004 4278190080
-0.18154013 -0.084181912 0.83500004 4278190080
-0.17934409 -0.084181912 0.83500004 4278190080
-0.18446819 -0.082717881 0.83500004 4279640083
-0.18227215 -0.082717881 0.83500004 4278786828
-0.17861207 -0.082717881 0.83500004 4280362271
-0.17544 -0.082229868 0.83500004 4281083164
-0.17275593 -0.081253849 0.83500004 4282660657
-0.16982786 -0.081253849 0.83500004 4282727221
-0.1668998 -0.079789817 0.83500004 4283057737
-0.16397174 -0.079789817 0.83500004 4282071073
-0.16177568 -0.078325778 0.83500004 4282532629
-0.16079967 -0.076373734 0.83500004 4282531373
-0.1583596 -0.076373734 0.83500004 4281611563
-0.15518755 -0.076861747 0.83500004 4283126838
-0.15152745 -0.076373734 0.83500004 4281940774
-0.14786737 -0.075397715 0.83500004 4282204205
-0.14713535 -0.073933683 0.83500004 4282794806
-0.14518331 -0.072957657 0.83500004 4282464543
-0.14420728 -0.071005613 0.83500004 4279635456
-0.14176723 -0.0705176 0.83500004 4278387459
-0.13908316 -0.069541581 0.83500004 4278190080
-0.1361551 -0.06734553 0.83500004 4278190082
-0.20252052 -0.08878617 0.83700001 4278190080
-0.19982477 -0.087422952 0.83800006 4278190080
-0.19738412 -0.087318629 0.83700001 4278190080
-0.18857889 -0.084383547 0.83700001 4278190080
-0.1929815 -0.082182236 0.83700001 4280819718
-0.19034801 -0.082313158 0.83833343 4281082629
-0.17903987 -0.081448466 0.83700001 4280886810
-0.17683858 -0.081448466 0.83700001 4281147935
-0.19123608 -0.080172047 0.83900005 4280819200
-0.17264108 -0.079340965 0.83800006 4282007614
-0.1697025 -0.079340965 0.83800006 4280888617
-0.16583201 -0.078513384 0.83700001 4282992455
-0.16363071 -0.078513384 0.83700001 4280821760
-0.1659831 -0.076739602 0.83900005 4282792501
-0.1634022 -0.076189049 0.83833337 4282859808
-0.15702677 -0.075578302 0.83700001 4282533940
-0.1540917 -0.075578302 0.83700001 4282467878
-0.15189038 -0.075578302 0.83700001 4282927428
-0.16255066 -0.074287862 0.83900005 4281150488
-0.16015297 -0.07346379 0.838 4281217586
-0.15715683 -0.073797517 0.83900005 4281610274
-0.15445991 -0.07355234 0.83900005 4281412384
-0.15142795 -0.073508069 0.83850002 4280822310
-0.14846611 -0.073132403 0.83700007 4282134314
-0.14857572 -0.071345761 0.83900005 4280622374
-0.14545918 -0.070525199 0.83800006 4279505158
-0.14308514 -0.069708146 0.83700001 4278190341
-0.14178681 -0.067586616 0.83800006 4278190080
-0.13958287 -0.067586616 0.83800006 4278190080
-0.13721499 -0.066773064 0.83700001 4278190087
-0.13901392 -0.065461576 0.83900005 4278190080
-0.13656318 -0.0646099 0.83750004 4278190095
-0.20275109 -0.087735921 0.84100002 4278190080
-0.19537832 -0.086261369 0.84100002 4278255616
-0.1894801 -0.079625875 0.84100002 4280884227
-0.17547184 -0.076676771 0.84100002 4281543463
-0.17252274 -0.077414043 0.84100002 4282663729
-0.16957363 -0.076676771 0.84100002 4282334506
-0.1673618 -0.075939491 0.84100002 4282134053
-0.16588725 -0.07446494 0.84100002 4281083939
-0.16392118 -0.07348191 0.84100002 4280429593
-0.15851448 -0.072990388 0.84100002 4281608988
-0.15703993 -0.071515836 0.84100002 4279835392
-0.15482809 -0.071515836 0.84100002 4281412361
-0.15187898 -0.071515836 0.84100002 4280294423
-0.14892988 -0.070041284 0.84100002 4279111182
-0.14671806 -0.070041284 0.84100002 4278191104
-0.1452435 -0.068566732 0.84100002 4278190080
-0.14376895 -0.068566732 0.84100002 4278190080
-0.14229439 -0.065617621 0.84100002 4278190083
-0.14008257 -0.064880341 0.84100002 4278190080
-0.19960736 -0.086109422 0.84433335 4279175696
-0.19713925 -0.085615553 0.84433335 4279043846
-0.19584295 -0.082771361 0.84300005 4280292880
-0.17909162 -0.076612771 0.84300011 4281610523
-0.17293301 -0.076120086 0.84300005 4282990139
-0.18149191 -0.074819118 0.84500003 4278453252
-0.17757672 -0.073989794 0.84400004 4280228636
-0.175357 -0.073989794 0.84400004 4280557345
-0.17239738 -0.073989794 0.84399998 4280886310
-0.1698644 -0.074207209 0.84366673 4281084195
-0.16726713 -0.073656656 0.84300011 4280559904
-0.16593546 -0.071855985 0.84500003 4279769860
-0.16332564 -0.07168591 0.84300005 4279901699
-0.16049516 -0.071248747 0.84366673 4280362777
-0.15833914 -0.071030162 0.84400004 4280165387
-0.15519631 -0.070207849 0.84300005 4280163091
-0.15224019 -0.070207849 0.84300005 4279045389
-0.15630528 -0.068892844 0.84500003 4278190080
-0.15408294 -0.068892844 0.84500003 4278190080
-0.15075423 -0.06834463 0.84433335 4278190080
-0.1478941 -0.068030648 0.84350002 4278190080
-0.1448499 -0.067251734 0.84300005 4278190080
-0.14790973 -0.065435857 0.84500003 4278190080
-0.14510806 -0.065149918 0.84450001 4278190080
-0.14189376 -0.064295612 0.84300005 4278190080
-0.20419759 -0.086134255 0.84700006 4278190080
-0.2022175 -0.085886739 0.84700006 4278650633
-0.20122744 -0.083906643 0.84700006 4278190080
-0.19875233 -0.083411612 0.84700006 4278714880
-0.17895134 -0.073511131 0.84700006 4279111682
-0.17152597 -0.072026059 0.84700006 4279636233
-0.16929837 -0.072026059 0.84700006 4279571462
-0.16558568 -0.070540987 0.84700006 4278912768
-0.16335806 -0.070540987 0.84700006 4279175936
-0.16113046 -0.070540987 0.84700006 4280162825
-0.15816031 -0.069055907 0.84700006 4278190080
-0.15444763 -0.067570835 0.84700006 4278190080
-0.20170259 -0.082616195 0.84900004 4278190080
-0.20021401 -0.082616195 0.84900004 4278190080
-0.18086247 -0.073684707 0.84900004 4278190080
-0.17532018 -0.072366208 0.85100001 4278517760
-0.17341956 -0.072196133 0.84900004 4279636233
-0.17009787 -0.070874117 0.85100001 4278912000
-0.16723089 -0.069823869 0.85033339 4278583808
-0.16374379 -0.069218971 0.84900004 4278190080
-0.16076663 -0.069218971 0.84900004 4278190080
-0.16338348 -0.067889944 0.85100001 4278190080
-0.16089667 -0.06739258 0.85100001 4278190080
-0.15788284 -0.06702511 0.8495 4278190080
-0.15481232 -0.066241808 0.84900004 4278190080
-0.1603993 -0.06490577 0.85100001 4278190080
-0.15791249 -0.064408399 0.85100001 4278190080
-0.17444089 -0.071123965 0.85400003 4278190080
-0.17219487 -0.070375293 0.85400003 4278190080
-0.16994885 -0.069626622 0.85400003 4278190080
-0.1654568 -0.068129271 0.85400003 4278190080
-0.16246212 -0.066631928 0.85400003 4278190080
-0.16246212 -0.065134577 0.85400003 4278190080
-0.17334856 -0.069789685 0.85600007 4278190080
-0.16959643 -0.068288825 0.85600007 4278190080
-0.16734515 -0.068288825 0.85600007 4278190080
-0.16434345 -0.066787973 0.85600007 4278190080
-0.17601013 -0.070704922 0.85800004 4278190080
-0.17275067 -0.067946933 0.85800004 4278190080
-0.098620623 -0.18400356 0.75500005 4278190080
-0.098620623 -0.18135604 0.75500005 4278190080
-0.097554594 -0.17719099 0.75700003 4278190080
-0.097554594 -0.17586371 0.75700003 4278190080
-0.097812332 -0.1803207 0.75900006 4278190080
-0.097812332 -0.17898992 0.75900006 4278190080
-0.097274065 -0.17522815 0.76000005 4278190080
-0.095401496 -0.1741244 0.76100004 4278190080
-0.097189315 -0.1724111 0.75933343 4278190080
-0.095401496 -0.17212299 0.76100004 4278190080
-0.098456681 -0.18686678 0.76400006 4278190080
-0.098456681 -0.18552722 0.76400006 4278190080
-0.097786903 -0.18217835 0.76400006 4278190080
-0.095777586 -0.18150859 0.76400006 4278190080
-0.09686289 -0.17836134 0.76200002 4278190080
-0.09561044 -0.17851622 0.7626667 4278190080
-0.094800979 -0.17555018 0.76333332 4278190080
-0.096826077 -0.18692812 0.76700002 4278190080
-0.094808869 -0.18625571 0.76700002 4278190080
-0.097153254 -0.18422905 0.76639998 4278190080
-0.094808869 -0.18423851 0.76700002 4278190080
-0.094044194 -0.1813716 0.76625001 4278190080
-0.092119254 -0.18154889 0.76700002 4278190080
-0.094013736 -0.17862609 0.76600003 4278190080
-0.091630958 -0.17855771 0.76666665 4278190080
-0.093342207 -0.17593998 0.76600003 4278190080
-0.096404411 -0.18943803 0.76900005 4278190080
-0.095056094 -0.18943803 0.76900005 4278190080
-0.095056094 -0.18808971 0.76900005 4278190080
-0.093707778 -0.18471894 0.76900005 4278190080
-0.092359461 -0.18404478 0.76900005 4278190080
-0.091011152 -0.18134815 0.76900005 4278190080
-0.091011152 -0.17999983 0.76900005 4278190080
-0.088988684 -0.17797737 0.76900005 4278190080
-0.093951494 -0.18722707 0.77100003 4278190080
-0.091777362 -0.18468298 0.77166671 4278190080
-0.090129226 -0.18229143 0.77300006 4278190080
-0.088456199 -0.18138462 0.77260005 4279440403
-0.087642998 -0.17866553 0.77100009 4279111436
-0.085537247 -0.17852353 0.77233338 4282401331
-0.085274242 -0.17596453 0.77200001 4279899912
-0.085201196 -0.17243099 0.77133328 4278321665
-0.085385583 -0.16941585 0.77300006 4278190080
-0.086063243 -0.16738285 0.77300006 4278190080
-0.088773899 -0.16196154 0.77300006 4278190080
-0.094317064 -0.18931267 0.77400005 4278190080
-0.0916612 -0.18739758 0.77450001 4278190080
-0.090362415 -0.1848022 0.77500004 4278190080
-0.089003585 -0.1848022 0.77500004 4278190080
-0.086174577 -0.1811702 0.77400005 4282600523
-0.08346042 -0.17777748 0.77400005 4281415487
-0.082887955 -0.1752895 0.7750001 4282071354
-0.083078779 -0.17272437 0.77466673 4279968538
-0.083604194 -0.16924636 0.7753334 4278190080
-0.085606501 -0.16645621 0.7750001 4278190080
-0.087531663 -0.16352814 0.77399999 4278190080
-0.086397253 -0.1632704 0.77600002 4278190080
-0.088266745 -0.16023844 0.77450001 4278190080
-0.093440391 -0.19029102 0.77800006 4278190080
-0.091394261 -0.19029102 0.77800006 4278190080
-0.090712212 -0.18892694 0.77800006 4278190080
-0.089348115 -0.18756284 0.77800006 4278190080
-0.087984025 -0.18483464 0.77800006 4281283119
-0.086619928 -0.18347056 0.77800006 4282729543
-0.085255839 -0.18142441 0.77800006 4282665538
-0.083891742 -0.18142441 0.77800006 4282138684
-0.082527652 -0.17801419 0.77800006 4282467924
-0.082527652 -0.17187577 0.77800006 4278190336
-0.082527652 -0.16914758 0.77800006 4278190080
-0.085255839 -0.16573735 0.77800006 4278190080
-0.083891742 -0.16710144 0.77800006 4278190080
-0.085255839 -0.16369121 0.77800006 4278190080
-0.094364405 -0.19214779 0.78000003 4278190080
-0.0916875 -0.19227096 0.78050005 4278190080
-0.088950984 -0.19021869 0.78050005 4278848266
