# .PCD v0.7 - Point Cloud Data file format
VERSION 0.7
FIELDS x y z rgba
SIZE 4 4 4 4
TYPE F F F U
COUNT 1 1 1 1
WIDTH 1018
HEIGHT 1
VIEWPOINT 0 0 0 1 0 0 0
POINTS 1018
DATA ascii
-0.10026086 -0.051835552 0.77800006 4278190080
-0.097532667 -0.052972291 0.77800006 4278190080
-0.09412244 -0.05388169 0.77800006 4278190080
-0.10162495 -0.049107358 0.77800006 4278190080
-0.11219668 -0.046038147 0.77800006 4278190080
-0.10912748 -0.04706122 0.77800006 4278190080
-0.10639928 -0.04706122 0.77800006 4278190080
-0.11390179 -0.044333033 0.77800006 4278190080
-0.07676129 -0.11534759 0.78040004 4278190080
-0.076845974 -0.11241934 0.78033334 4278190080
-0.076845974 -0.10922652 0.78033334 4278190080
-0.076634258 -0.10674118 0.78049999 4278190080
-0.074629761 -0.10680956 0.78100002 4278190080
-0.078637004 -0.1046214 0.78000003 4278190080
-0.076659024 -0.10403731 0.78075004 4278190080
-0.074629761 -0.10338617 0.78099996 4278190080
-0.076585606 -0.10051861 0.78000003 4278190080
-0.074629761 -0.099962786 0.78100002 4278190080
-0.076585606 -0.097783394 0.78000003 4278190080
-0.074629761 -0.097908765 0.78100002 4278190080
-0.074581981 -0.094425328 0.78050005 4278190080
-0.074109606 -0.091440134 0.78033334 4278190080
-0.073897302 -0.088950984 0.78049999 4278190081
-0.075901799 -0.084791198 0.78000003 4278190080
-0.073913224 -0.085547768 0.78066677 4278190080
-0.076585606 -0.082056001 0.78000003 4278190080
-0.074173309 -0.082389422 0.78099996 4278190080
-0.076585606 -0.079320803 0.78000003 4278190080
-0.074629761 -0.079422489 0.78100002 4278190080
-0.078637004 -0.075901799 0.78000003 4278190080
-0.076659024 -0.076659024 0.78075004 4278190080
-0.074629761 -0.076683789 0.78100002 4278190080
-0.078637004 -0.073850401 0.78000003 4278190080
-0.076683789 -0.073945083 0.78100002 4278190080
-0.081372201 -0.069063805 0.78000003 4278190080
-0.078978904 -0.070089504 0.78000003 4278190080
-0.076912008 -0.071434602 0.78099996 4278190080
-0.084107399 -0.0663286 0.78000003 4278190080
-0.082056001 -0.067012399 0.78000003 4278190080
-0.079371646 -0.067054912 0.78049999 4278190080
-0.084107399 -0.064277202 0.78000003 4278190080
-0.082134679 -0.064338788 0.78075004 4278190080
-0.079650715 -0.064587831 0.78099996 4278190080
-0.085133098 -0.061200101 0.78000003 4278190080
-0.082389422 -0.061849121 0.78099996 4278190080
-0.088950984 -0.058844056 0.78050005 4278190080
-0.085814275 -0.05898862 0.78060007 4278190080
-0.082845874 -0.059566867 0.78100002 4278190080
-0.091492437 -0.05511428 0.78000003 4278190080
-0.089007966 -0.056143485 0.78100002 4278190080
-0.086497486 -0.056371707 0.78099996 4278190080
-0.099151 -0.051285002 0.78000003 4278190080
-0.096871667 -0.051740866 0.78000003 4278190080
-0.094364405 -0.051968798 0.78000003 4278190080
-0.091717094 -0.052018553 0.78075004 4278190080
-0.0998348 -0.0492336 0.78000003 4278190080
-0.097192742 -0.049280722 0.78075004 4278190080
-0.09448538 -0.049296722 0.78100002 4278190080
-0.092431352 -0.049981397 0.78100002 4278190080
-0.109408 -0.0458146 0.78000003 4278190080
-0.10667279 -0.0458146 0.78000003 4278190080
-0.10355345 -0.04637339 0.7802 4278190080
-0.1003217 -0.046670754 0.78059995 4278190080
-0.097224087 -0.047242686 0.78100002 4278190080
-0.095170058 -0.047242686 0.78100002 4278190080
-0.1121432 -0.043763198 0.78000003 4278190080
-0.10944284 -0.043777008 0.78025007 4278190080
-0.10674118 -0.043790814 0.78050005 4278190080
-0.10338617 -0.043819308 0.78100008 4278190080
-0.10064746 -0.044503979 0.78100002 4278190080
-0.074425787 -0.11793709 0.78366667 4278190080
-0.074228242 -0.11546752 0.78400004 4278190080
-0.075602859 -0.11203098 0.78400004 4278190080
-0.074030705 -0.11299503 0.78433341 4278190080
-0.076193728 -0.11051524 0.78300005 4278190080
-0.073796928 -0.10952846 0.78380001 4278190080
-0.072853625 -0.10309599 0.78400004 4278190080
-0.072853625 -0.10034677 0.78400004 4278190080
-0.073540933 -0.097597554 0.78400004 4278190080
-0.073051751 -0.094578594 0.78366667 4278190080
-0.072556436 -0.091813304 0.7845 4278190080
-0.072167203 -0.087976128 0.78400004 4278190080
-0.070882887 -0.087399282 0.78500003 4278190080
-0.072075151 -0.085117325 0.78300005 4278190080
-0.070882887 -0.085334733 0.78500003 4278190080
-0.072532773 -0.082142793 0.78300005 4278190080
-0.070882887 -0.082581997 0.78500003 4278190080
-0.072807603 -0.079676285 0.78350002 4278190080
-0.070882887 -0.079829261 0.78500003 4278190080
-0.072734751 -0.076585069 0.78420007 4278651404
-0.070882887 -0.077076532 0.78500003 4278260493
-0.074196972 -0.073509961 0.78366667 4278190084
-0.076034524 -0.069985531 0.78420007 4278519301
-0.073635615 -0.070194706 0.78500003 4280098334
-0.076257437 -0.06732741 0.78366667 4279111436
-0.073635615 -0.06744197 0.78500003 4281019689
-0.078939453 -0.063837998 0.78300005 4278190080
-0.076388352 -0.064689234 0.78500003 4280824112
-0.081685178 -0.061092272 0.78300005 4278190080
-0.079676285 -0.061817713 0.78350002 4279835418
-0.076663628 -0.062074136 0.78500003 4280165670
-0.084430888 -0.058346555 0.78300005 4278190080
-0.082476795 -0.058420189 0.78400004 4279111696
-0.079990275 -0.059362318 0.78433341 4281679424
-0.077076532 -0.059871953 0.78500003 4280164896
-0.088699095 -0.054320317 0.78433341 4278190080
-0.085226029 -0.055670965 0.78400004 4278255626
-0.083270177 -0.055742849 0.78500003 4281019485
-0.090152018 -0.051613752 0.78500003 4278190080
-0.088699095 -0.052945118 0.78433341 4278190080
-0.091830544 -0.049235646 0.78366667 4278190080
-0.097473063 -0.04599081 0.78300005 4278190080
-0.094659835 -0.046526749 0.78433341 4278190080
-0.092904754 -0.047484647 0.78500003 4278190080
-0.10007472 -0.043739531 0.78366667 4278190080
-0.097951435 -0.044273127 0.78500003 4278190080
-0.095657483 -0.044731915 0.78500003 4278190080
-0.07313329 -0.11866912 0.78700006 4278190080
-0.072443359 -0.11590937 0.78700006 4278190080
-0.072443359 -0.11245968 0.787 4278190080
-0.072443359 -0.097281076 0.78700006 4278190080
-0.072443359 -0.095901199 0.78700006 4278190080
-0.069683604 -0.085552156 0.78700006 4278190080
-0.069683604 -0.082792401 0.78700006 4278584838
-0.069683604 -0.080032654 0.78700006 4280295463
-0.070028573 -0.076237999 0.78700006 4278588680
-0.072443359 -0.07313329 0.78700006 4280624961
-0.07060352 -0.073363267 0.787 4280230696
-0.072443359 -0.070373543 0.78700006 4281150765
-0.072443359 -0.067613795 0.78700006 4280690724
-0.07313329 -0.064854048 0.78700006 4280296482
-0.075203098 -0.060714427 0.78700006 4284242772
-0.073478259 -0.061749335 0.78700006 4282271558
-0.082102463 -0.057264745 0.78700006 4280036127
-0.07980267 -0.057724703 0.787 4282272330
-0.076927938 -0.05829965 0.78700006 4280231975
-0.084862217 -0.054504998 0.78700006 4279111727
-0.082792401 -0.055194937 0.78700006 4280494131
-0.080032654 -0.055884872 0.78700006 4283258180
-0.077962846 -0.055884872 0.78700006 4279179264
-0.088311896 -0.051745251 0.78700006 4278190080
-0.085782133 -0.052665163 0.787 4281546810
-0.08348234 -0.053125124 0.78700006 4280625720
-0.090381704 -0.049675442 0.78700006 4278190080
-0.089001834 -0.050365377 0.78700006 4280689964
-0.093141451 -0.046225756 0.78700006 4278649600
-0.091071635 -0.046915695 0.78700006 4281940534
-0.094797298 -0.043741982 0.78700006 4280492330
-0.091761574 -0.044845883 0.78700006 4283518030
-0.065101266 -0.088648528 0.79000002 4280426021
-0.067785621 -0.085769564 0.78900003 4279440147
-0.065101266 -0.085878268 0.79000002 4280033298
-0.067785621 -0.083002798 0.78900003 4279244310
-0.064929441 -0.082650378 0.78960001 4280755232
-0.067785621 -0.079544343 0.78900003 4280691241
-0.065206461 -0.079327464 0.78960001 4280428318
-0.067785621 -0.076085903 0.78900003 4280296995
-0.065101266 -0.076182336 0.79000002 4280757803
-0.069860689 -0.072627448 0.78900003 4281018677
-0.067828134 -0.073365599 0.7895 4280035372
-0.065793835 -0.073412061 0.79000002 4281025589
-0.070552379 -0.070552379 0.78900003 4281215276
-0.068564095 -0.070641801 0.79000002 4279376667
-0.070552379 -0.067785621 0.78900003 4281085478
-0.068564095 -0.067871526 0.79000002 4281279524
-0.070467167 -0.064652763 0.78960001 4281547576
-0.072627448 -0.060868718 0.78900003 4280757805
-0.071244068 -0.061560411 0.78900003 4281549888
-0.076085903 -0.057410266 0.78900003 4281875240
-0.073342152 -0.05812015 0.78925002 4281087276
-0.071334369 -0.058868166 0.79000002 4280694593
-0.082311109 -0.054643508 0.78900003 4280034331
-0.079544351 -0.054643508 0.78900003 4282600773
-0.076380752 -0.055612519 0.78966665 4282270030
-0.074104629 -0.056097899 0.79000002 4283980337
-0.085077867 -0.05187675 0.78900003 4281876564
-0.082362831 -0.05225547 0.7895 4281151276
-0.08092773 -0.053260129 0.78900003 4284047458
-0.088305749 -0.049571116 0.78900003 4281742619
-0.085850872 -0.049848795 0.78974998 4283387966
-0.083800569 -0.049864799 0.79000002 4279243802
-0.088573724 -0.046362221 0.78933334 4281676856
-0.09383928 -0.042654216 0.78900003 4282136371
-0.091187708 -0.043310486 0.78920001 4284242012
-0.088879384 -0.04316999 0.79000002 4281216050
-0.094189063 -0.040861432 0.79000002 4281085231
-0.092111364 -0.040861432 0.79000002 4284441435
-0.063342676 -0.097450264 0.79400003 4279707406
-0.063183121 -0.094427519 0.79200006 4278716676
-0.061950523 -0.094665974 0.79400003 4278914055
-0.063183121 -0.09165024 0.79200006 4278653201
-0.061950523 -0.091881678 0.79400003 4280298026
-0.063289493 -0.088325918 0.79333335 4279507223
-0.061950523 -0.089793459 0.79400003 4281218618
-0.063342676 -0.084920943 0.79400003 4280298804
-0.063342676 -0.082136646 0.79400003 4281219127
-0.063342676 -0.079352364 0.79400003 4282730797
-0.063342676 -0.076568067 0.79400003 4281611566
-0.061950523 -0.076568067 0.79400003 4280953636
-0.063957214 -0.073690847 0.79300004 4279575325
-0.061950523 -0.074479841 0.79400003 4281018927
-0.067349039 -0.070820644 0.79200006 4282534731
-0.064946629 -0.071067169 0.79320014 4281350973
-0.066794693 -0.067490183 0.79366666 4281347111
-0.064734817 -0.068911262 0.79400003 4280887341
-0.068476439 -0.064652413 0.79300004 4281940775
-0.070126317 -0.061100163 0.79200006 4281812804
-0.068911262 -0.061254449 0.79400003 4281285173
-0.071695551 -0.057774086 0.79400003 4281086267
-0.075680882 -0.054851282 0.79200006 4284110948
-0.073551744 -0.055453841 0.79399997 4283520311
-0.071695551 -0.056381941 0.79400003 4281217857
-0.079152487 -0.052768324 0.79200006 4282533953
-0.076519415 -0.052867822 0.79350007 4281745487
-0.074479841 -0.053597644 0.79400003 4282861885
-0.082151383 -0.049623542 0.79280007 4282204741
-0.07958439 -0.050349306 0.79399997 4283518023
-0.077264138 -0.050813355 0.79400003 4282007371
-0.085424937 -0.046532098 0.79222226 4283058762
-0.082832724 -0.046636913 0.79400003 4282796342
-0.087593898 -0.042406999 0.79300004 4283189846
-0.085562229 -0.043476969 0.79350007 4283191118
-0.091495365 -0.040072437 0.79266673 4284046181
-0.089254022 -0.040569797 0.79333335 4281940288
-0.06350223 -0.10327835 0.79600006 4278719235
-0.06210658 -0.10327835 0.79600006 4278719492
-0.06210658 -0.10048704 0.79600006 4278587657
-0.06210658 -0.097695738 0.79600006 4278588932
-0.060710922 -0.09490443 0.79600006 4280031520
-0.060710922 -0.091415294 0.79600006 4280822567
-0.061408751 -0.087926164 0.79600006 4281151781
-0.061408751 -0.085134856 0.79600006 4279246610
-0.061408751 -0.082343549 0.79600006 4278983202
-0.061408751 -0.079552241 0.79600006 4280690718
-0.060710922 -0.07676094 0.79600006 4280492065
-0.06117614 -0.073737025 0.79600006 4281084187
-0.06350223 -0.069782674 0.79600006 4279970341
-0.06210658 -0.071178317 0.79600006 4280824369
-0.064897887 -0.066991359 0.79600006 4281215775
-0.066758752 -0.063967444 0.79600006 4281020208
-0.067223966 -0.061641362 0.79600006 4281613880
-0.069782674 -0.058617443 0.79600006 4281809481
-0.070480496 -0.055826139 0.79600006 4281217075
-0.073737018 -0.05280222 0.79600006 4282337093
-0.071178317 -0.053034831 0.79600006 4282403640
-0.08164572 -0.04815004 0.79600006 4284311421
-0.079319634 -0.048615258 0.79600006 4283255378
-0.07676094 -0.04954569 0.79600006 4282992966
-0.073969632 -0.050941348 0.79600006 4281349966
-0.082110941 -0.04582395 0.79600006 4282664756
-0.080250069 -0.046056561 0.79600006 4283716949
-0.084437035 -0.042567428 0.79600006 4283519047
-0.083041377 -0.043963082 0.79600006 4282005041
-0.08769355 -0.040241342 0.79600006 4283124299
-0.085134856 -0.041171774 0.79600006 4283915354
-0.088623993 -0.038380466 0.79600006 4281676332
-0.10258052 -0.032797854 0.79600006 4281216781
-0.059613332 -0.10940799 0.80000001 4279768076
-0.061563041 -0.10633616 0.79800004 4278587917
-0.059613332 -0.10660267 0.80000001 4279180820
-0.060863461 -0.10353784 0.79800004 4279768088
-0.059464298 -0.10353784 0.79800004 4280623398
-0.060863461 -0.10073952 0.79800004 4279505437
-0.059464298 -0.10073952 0.79800004 4279439388
-0.060863461 -0.097941197 0.79800004 4279374101
-0.059046417 -0.097321682 0.79866672 4280098327
-0.058962844 -0.094257444 0.79880005 4279242257
-0.058837481 -0.091059372 0.79900002 4278849038
-0.059046417 -0.088454492 0.79866672 4279310091
-0.058912002 -0.085562661 0.80000001 4279770637
-0.058837481 -0.082653888 0.79900002 4279180582
-0.058837481 -0.079852059 0.79900002 4280427043
-0.058837485 -0.077050231 0.79900002 4280097568
-0.060863461 -0.072056741 0.79800004 4279442714
-0.059464294 -0.0734559 0.79800004 4280032011
-0.061329845 -0.069724806 0.79800004 4281021749
-0.059538815 -0.070044786 0.79900002 4280428587
-0.063661784 -0.067159683 0.79800004 4280428839
-0.06167832 -0.067285478 0.79949999 4280296481
-0.059613332 -0.068029329 0.80000001 4278650881
-0.064361364 -0.064361364 0.79800004 4280822572
-0.061717331 -0.064522669 0.80000001 4279967253
-0.066460103 -0.060863461 0.79800004 4282074170
-0.064481899 -0.06167832 0.79949999 4280954409
-0.061717331 -0.062418669 0.80000001 4278255873
-0.067159683 -0.058764718 0.79800004 4281281586
-0.064522669 -0.058912002 0.80000001 4280228110
-0.069258422 -0.05526682 0.79800004 4282399297
-0.06705308 -0.055573653 0.79840004 4282202672
-0.065223999 -0.056106664 0.80000001 4278452736
-0.072056741 -0.051069338 0.79800004 4280889389
-0.069651604 -0.052150708 0.79850006 4280690995
-0.067944296 -0.053233828 0.79900002 4279703076
-0.076254219 -0.048271023 0.79800004 4282531385
-0.0734559 -0.048970599 0.79800004 4282268995
-0.070308082 -0.049285609 0.79933333 4280491553
-0.079052538 -0.04617228 0.79800004 4282401089
-0.076412901 -0.046268422 0.79966664 4282203200
-0.072938666 -0.046287999 0.80000001 4280689700
-0.070834666 -0.046989333 0.80000001 4278190080
-0.082317255 -0.043140765 0.79800004 4283190606
-0.07985118 -0.043428313 0.79900002 4283386953
-0.077848002 -0.044183999 0.80000001 4281218109
-0.085348763 -0.039876062 0.79800004 4283321673
-0.082601726 -0.040600624 0.79850006 4282600260
-0.079952002 -0.041378666 0.80000001 4282994252
-0.0909454 -0.03707774 0.79800004 4283978569
-0.088258415 -0.037823785 0.79900002 4283057986
-0.085348763 -0.038476903 0.79800004 4283189830
-0.082757331 -0.038573332 0.80000001 4281745212
-0.097321689 -0.034308057 0.79866672 4282861107
-0.094257452 -0.035153281 0.79879999 4284175435
-0.091407113 -0.035300445 0.80000001 4283716178
-0.10378156 -0.031231424 0.79880005 4282008379
-0.10086577 -0.031519674 0.79900002 4284507744
-0.098186664 -0.032962669 0.80000001 4282335803
-0.058428954 -0.10981828 0.80300003 4278976777
-0.058428954 -0.10700242 0.80300003 4279571729
-0.058428954 -0.1034826 0.80300003 4280030211
-0.057706799 -0.099931896 0.80274999 4278782471
-0.057688609 -0.097789973 0.80250001 4279311117
-0.056058746 -0.096872248 0.80266666 4278519302
-0.055866282 -0.094143309 0.80260003 4279571731
-0.058356192 -0.087885834 0.80200005 4279702819
-0.055543851 -0.085776567 0.80200005 4279570700
-0.055566344 -0.082998715 0.80233335 4278981134
-0.055566344 -0.07948181 0.80233335 4279177227
-0.058356192 -0.075230271 0.80200005 4279698956
-0.055589434 -0.075996481 0.80266666 4278714885
-0.058356192 -0.073121011 0.80200005 4280097557
-0.057911139 -0.070103236 0.80233335 4278519825
-0.058117915 -0.067406021 0.80260003 4278190080
-0.058404114 -0.064737737 0.80266666 4278190080
-0.061871625 -0.06116854 0.80200005 4278190080
-0.061746262 -0.058651634 0.80220002 4278190080
-0.064332426 -0.055192303 0.80200005 4278190080
-0.062058359 -0.055303462 0.80260003 4278190080
-0.067261957 -0.051794052 0.80200005 4278190080
-0.064744242 -0.052076846 0.80274999 4278190080
-0.069605581 -0.048512984 0.80200005 4278190080
-0.067537963 -0.049246747 0.80250001 4278190080
-0.064999282 -0.049512088 0.80300003 4278190080
-0.070074312 -0.046169359 0.80200005 4278190080
-0.078042619 -0.042888287 0.80200005 4283125834
-0.07593336 -0.043591373 0.80200005 4280889383
-0.073121011 -0.043591373 0.80200005 4278190080
-0.079097256 -0.040427484 0.80200005 4282008387
-0.076004148 -0.04081694 0.80275005 4278453510
-0.087885834 -0.037263595 0.80200005 4282663486
-0.085776567 -0.037263595 0.80200005 4282531139
-0.082964227 -0.037263595 0.80200005 4282467124
-0.079514541 -0.037997946 0.80266666 4279243789
-0.076028042 -0.038717981 0.80300003 4278190080
-0.096322879 -0.033045072 0.80200005 4282927932
-0.09421362 -0.033045072 0.80200005 4283124037
-0.091166906 -0.033513799 0.80200005 4283255372
-0.088625737 -0.034464981 0.80233335 4283124036
-0.085829906 -0.034472141 0.80250007 4281218876
-0.083187602 -0.034766845 0.80280006 4280164627
-0.080486476 -0.035432819 0.80300003 4278190848
-0.099603944 -0.030701451 0.80200005 4283783767
-0.097055987 -0.030945238 0.80225003 4282863951
-0.094301499 -0.030964525 0.80274999 4283454026
-0.091515236 -0.030974388 0.80300003 4283518033
-0.089403339 -0.030974388 0.80300003 4281478962
-0.10368618 -0.027996529 0.80239999 4284570462
-0.100283 -0.028501529 0.80274999 4283322970
-0.097381592 -0.028393187 0.80300003 4282139701
-0.091515228 -0.028862495 0.80300003 4278321170
-0.057163049 -0.10303463 0.80500007 4279569152
-0.081863135 -0.033168685 0.80500007 4278190080
-0.078805037 -0.035050597 0.80500007 4278190080
-0.088214584 -0.031051533 0.80500007 4278584070
-0.086097434 -0.031051531 0.80500007 4278190080
-0.083509803 -0.031286772 0.80500007 4278190080
-0.10091749 -0.027522951 0.80500007 4283126368
-0.096683189 -0.027522951 0.80500007 4282007871
-0.09456604 -0.028228667 0.80500007 4281546010
-0.091743171 -0.027522951 0.80500007 4278190080
-0.089155547 -0.028463906 0.80500007 4278190080
-0.10021177 -0.026111517 0.80500007 4282270279
-0.09809462 -0.026111517 0.80500007 4278587194
-0.10046074 -0.02476145 0.80700004 4279839028
-0.097475104 -0.025253551 0.80766672 4278191125
-0.097636409 -0.022931553 0.80900002 4278190080
-0.13311306 -0.076156035 0.73000002 4278190080
-0.1305532 -0.076156035 0.73000002 4278190080
-0.13899024 -0.077860273 0.73400003 4278190080
-0.13705982 -0.076573327 0.73400003 4278190080
-0.13301751 -0.075183809 0.73300004 4278190080
-0.13044713 -0.075183809 0.73300004 4278190080
-0.12723413 -0.075183809 0.73300004 4278190082
-0.12466376 -0.075183809 0.73300004 4278190080
-0.12129209 -0.076503195 0.73333335 4278190080
-0.12998161 -0.073999435 0.73400003 4278190080
-0.12740773 -0.073999435 0.73400003 4278190080
-0.12483382 -0.073999435 0.73400003 4278190080
-0.14194988 -0.078717656 0.73600006 4278190080
-0.13872375 -0.076781973 0.73600006 4278190080
-0.13485236 -0.075491525 0.73600006 4278190080
-0.1206574 -0.075491525 0.73600006 4278190080
-0.11936693 -0.075491525 0.73600006 4278190080
-0.1329167 -0.07420107 0.73600006 4278190080
-0.13033579 -0.072910614 0.73600006 4278190080
-0.12775488 -0.072910614 0.73600006 4278190080
-0.1232383 -0.07420107 0.73600006 4278190080
-0.14835916 -0.083141603 0.73900002 4278190080
-0.14706346 -0.080982082 0.73900002 4278190080
-0.14317632 -0.078390658 0.73900002 4278190080
-0.1418806 -0.077094942 0.73900002 4278190080
-0.1405849 -0.077094942 0.73900002 4278190080
-0.13327788 -0.07310874 0.73800004 4278190080
-0.1261611 -0.07310874 0.73800004 4278190080
-0.12430388 -0.073158272 0.7385 4278190080
-0.12201301 -0.074071608 0.73900002 4278190080
-0.13281062 -0.071912088 0.73900002 4278190080
-0.13068996 -0.071814783 0.73800004 4278190080
-0.12781747 -0.071354881 0.73860008 4278190080
-0.12503633 -0.071912088 0.73900002 4278190080
-0.15156341 -0.085213751 0.74200004 4278190080
-0.15016118 -0.081905656 0.74150002 4278190080
-0.14886108 -0.081905656 0.74150002 4278190080
-0.14561127 -0.07995595 0.74150002 4278190080
-0.14375755 -0.077407911 0.74200004 4278190080
-0.13706772 -0.076004371 0.74100006 4278190080
-0.1363243 -0.074338704 0.74166673 4278190080
-0.13446927 -0.072106712 0.74100006 4278190080
-0.12407551 -0.072106712 0.74100006 4278190080
-0.13334978 -0.070469387 0.74200004 4278190080
-0.13061567 -0.070181333 0.74125004 4278190080
-0.12710702 -0.069941349 0.741 4278190080
-0.12476698 -0.070181333 0.74125004 4278190080
-0.12944685 -0.068301097 0.74200004 4278190080
-0.12749538 -0.068301097 0.74200004 4278190080
-0.1576124 -0.086545117 0.74600005 4278190080
-0.15435778 -0.085499987 0.74450004 4278190080
-0.15197192 -0.08413896 0.74400002 4278190080
-0.15238045 -0.08305715 0.74600005 4278190080
-0.14845648 -0.080005184 0.74600005 4278190080
-0.14544952 -0.078921035 0.74400002 4278190080
-0.14584053 -0.077825211 0.74600005 4278190080
-0.14191654 -0.076517224 0.74600005 4278190080
-0.13976696 -0.075760663 0.745 4278190080
-0.13930058 -0.073247254 0.74600005 4278190080
-0.13718782 -0.072833471 0.74400002 4278190080
-0.13370919 -0.069789678 0.74400002 4278190080
-0.12783903 -0.067180723 0.74400002 4278190080
-0.12997022 -0.065310791 0.745 4278190080
-0.12775537 -0.064483091 0.74514288 4278190080
-0.16408248 -0.087612025 0.74766666 4278190080
-0.16109802 -0.087097712 0.74700004 4278190080
-0.16000307 -0.08590281 0.74800003 4278190080
-0.15752794 -0.084990203 0.74766666 4278190082
-0.15520419 -0.084478229 0.74700004 4278190080
-0.15693296 -0.08339116 0.74900001 4278190080
-0.15460688 -0.082879186 0.74833339 4278190080
-0.15299323 -0.082077913 0.74900001 4278190080
-0.15127496 -0.080549009 0.74700004 4278190080
-0.1490535 -0.079451419 0.74900001 4278190080
-0.145292 -0.076250419 0.74766666 4278190080
-0.14297995 -0.075746633 0.74700004 4278190080
-0.14285767 -0.07339409 0.7475 4278190080
-0.14079705 -0.073345438 0.74700004 4278190080
-0.12377044 -0.063522391 0.74700004 4278190080
-0.13066804 -0.062379211 0.74900001 4278190080
-0.12721486 -0.061639305 0.74800003 4278190080
-0.12459187 -0.061639305 0.74800003 4278190080
-0.12147532 -0.062379211 0.74900001 4278190080
-0.11884882 -0.062379211 0.74900001 4278190080
-0.17536139 -0.092954718 0.75200003 4278190080
-0.17249382 -0.092171863 0.75100005 4278190080
-0.17000555 -0.090595901 0.75066668 4278190080
-0.1681096 -0.087680697 0.75200003 4278190080
-0.1663475 -0.087447502 0.75000006 4278190080
-0.16591179 -0.08624734 0.75100005 4278190080
-0.16306001 -0.086132504 0.75000006 4278190080
-0.16043001 -0.084817506 0.75000006 4278190081
-0.16019855 -0.083725177 0.75200003 4278190080
-0.15756154 -0.08240667 0.75200003 4278190080
-0.15582751 -0.082187504 0.75000006 4278190080
-0.15406014 -0.080321081 0.75100005 4278190080
-0.15142663 -0.079004325 0.75100005 4278190080
-0.14859501 -0.078242503 0.75000006 4278190080
-0.148332 -0.077132635 0.75200003 4278190080
-0.14662251 -0.0756125 0.75000006 4278190080
-0.14530751 -0.073640004 0.75000006 4278190080
-0.11307072 -0.064330384 0.75133342 4278190080
-0.13018501 -0.061147504 0.75000006 4278190080
-0.1216375 -0.0611475 0.75000006 4278190080
-0.11823545 -0.061640188 0.75066668 4278190080
-0.11587343 -0.062545784 0.75100005 4278190080
-0.13250992 -0.059992056 0.75200003 4278190080
-0.13053218 -0.059992056 0.75200003 4278190080
-0.12772596 -0.059912279 0.75100005 4278190080
-0.12472932 -0.059400834 0.75120008 4278190081
-0.12196187 -0.059992056 0.75200003 4278190080
-0.18334168 -0.095973082 0.75500005 4278190080
-0.18123592 -0.095247649 0.75450003 4278190080
-0.17877133 -0.093683816 0.75433332 4278190080
-0.17539908 -0.091560535 0.75500005 4278190080
-0.17318374 -0.091218919 0.75400001 4278190080
-0.16987871 -0.089235894 0.75400001 4278190080
-0.16855669 -0.08659187 0.75400001 4278190080
-0.16642669 -0.084866308 0.75433332 4278190080
-0.16403836 -0.084664524 0.75450003 4278190080
-0.16216141 -0.082735419 0.75500005 4278190080
-0.1604002 -0.082680188 0.75450003 4278190080
-0.15798059 -0.08130382 0.75400001 4278190080
-0.15723835 -0.079611264 0.75466675 4278190080
-0.15467556 -0.078659788 0.75400001 4278190080
-0.15421882 -0.077440351 0.75500005 4278190080
-0.15140428 -0.076693572 0.75416666 4278190080
-0.14872651 -0.076015763 0.75400001 4278190080
-0.14797609 -0.074318543 0.75466675 4278190080
-0.11171012 -0.064778656 0.75400001 4278190080
-0.10979987 -0.064821176 0.75450003 4278190080
-0.10677116 -0.064962231 0.75460005 4278190080
-0.13418435 -0.060151603 0.75400001 4278190080
-0.12096421 -0.060151603 0.75400001 4278190080
-0.1189812 -0.060151603 0.75400001 4278190080
-0.11570174 -0.061266582 0.75416666 4278190080
-0.11269083 -0.062409896 0.75466675 4278190080
-0.13365638 -0.058226228 0.75475007 4278190080
-0.13092293 -0.058187652 0.75424999 4278190080
-0.12783869 -0.058036387 0.75400001 4278190080
-0.12410357 -0.057973672 0.75433332 4278190080
-0.12170587 -0.058206722 0.75450003 4278190080
-0.11847711 -0.058907617 0.75500005 4278190080
-0.18382736 -0.094900042 0.75700003 4278190080
-0.17719099 -0.090918228 0.75700003 4278190080
-0.17586371 -0.090918228 0.75700003 4278190080
-0.16325462 -0.082290947 0.75700003 4278190080
-0.1612637 -0.081627309 0.75700003 4278190080
-0.15993644 -0.079636395 0.75700003 4278190080
-0.15860917 -0.078972757 0.75700003 4278190083
-0.10950005 -0.063045479 0.75700003 4278190080
-0.10618187 -0.063709117 0.75700003 4278190080
-0.11480914 -0.060390934 0.75700003 4278190080
-0.11259702 -0.060833361 0.75700003 4278190080
-0.10950005 -0.061718207 0.75700003 4278190080
-0.12011823 -0.057736389 0.75700003 4278190080
-0.11812732 -0.057736389 0.75700003 4278190080
-0.11569399 -0.058621239 0.75700003 4278190080
-0.11348187 -0.059063662 0.75700003 4278190080
-0.13272734 -0.056409117 0.75700003 4278190080
-0.13007279 -0.056409117 0.75700003 4278190080
-0.12741825 -0.056409117 0.75700003 4278190080
-0.12476369 -0.056409117 0.75700003 4278190080
-0.18802719 -0.097009897 0.75966674 4278190080
-0.18564382 -0.096481554 0.75900006 4278190080
-0.18680014 -0.095401496 0.76100004 4278190080
-0.18231687 -0.093819998 0.75900006 4278190080
-0.18346442 -0.092732929 0.76100004 4278190080
-0.18122452 -0.091943927 0.76000005 4278190080
-0.17870237 -0.091237336 0.75966674 4278190080
-0.17612584 -0.090064354 0.76100004 4278190080
-0.1741244 -0.088730067 0.76100004 4278190080
-0.17225081 -0.088855602 0.75980008 4278190080
-0.16952892 -0.085097738 0.76033336 4278190080
-0.16878726 -0.082725778 0.76100004 4278190080
-0.16656755 -0.082617067 0.76000011 4278190080
-0.16435134 -0.081842974 0.75900006 4278190080
-0.16641794 -0.08020886 0.76033336 4278190080
-0.16368595 -0.079846799 0.75900006 4278190080
-0.16138703 -0.079249792 0.75966674 4278190080
-0.10579702 -0.063212052 0.75900006 4278190080
-0.11511247 -0.057888933 0.75900006 4278190080
-0.13325334 -0.054632992 0.76000005 4278190081
-0.13041644 -0.055227373 0.75900006 4278190080
-0.12725607 -0.054632992 0.76000005 4278190080
-0.12414711 -0.055077169 0.76000005 4278190080
-0.12131372 -0.055323217 0.76033336 4278190080
-0.11859547 -0.055965524 0.76000011 4278190080
-0.11574937 -0.056373615 0.76100004 4278190080
-0.13342866 -0.052704323 0.76100004 4278190081
-0.13058826 -0.053300455 0.76000011 4278190081
-0.12767336 -0.053002391 0.76050007 4278190080
-0.12475581 -0.052704323 0.76100004 4278190080
-0.18528438 -0.093644656 0.76300001 4278190080
-0.17969738 -0.090182699 0.76200002 4278190080
-0.17301717 -0.087510623 0.76200002 4278190080
-0.1634247 -0.077023938 0.76400006 4278190080
-0.11890756 -0.054109618 0.76200002 4278190080
-0.11530025 -0.054644037 0.76200002 4278190080
-0.11244784 -0.055554807 0.76349998 4278190080
-0.11006609 -0.056484219 0.76400012 4278190080
-0.13627608 -0.05277358 0.76200002 4278190080
-0.13395467 -0.051572546 0.76400006 4278190080
-0.13110463 -0.051505044 0.76300001 4278190080
-0.12759182 -0.051437542 0.76200002 4278190080
-0.12424646 -0.051972892 0.76333338 4278190080
-0.12157963 -0.05277358 0.76200002 4278190080
-0.11854988 -0.052912097 0.76400012 4278190080
-0.11520103 -0.052912094 0.76400006 4278190080
-0.12993604 -0.050232999 0.76400006 4278190080
-0.12792671 -0.050232999 0.76400006 4278190080
-0.16952248 -0.079050489 0.76633334 4278190085
-0.16877323 -0.07665398 0.76700002 4278190080
-0.16659319 -0.076578811 0.76625001 4278190080
-0.16385251 -0.075882517 0.76600003 4278190080
-0.16608362 -0.074636765 0.76700002 4278190080
-0.11214495 -0.05439366 0.76600003 4278190080
-0.10924704 -0.054959286 0.76639998 4278190080
-0.13699144 -0.051707555 0.76600003 4278190080
-0.12154633 -0.051707555 0.76600003 4278190080
-0.11818869 -0.051707555 0.76600003 4278190080
-0.11557754 -0.051741306 0.7665 4278190080
-0.1131385 -0.052648511 0.76666671 4278190080
-0.10960174 -0.053119864 0.76700002 4278190080
-0.10691213 -0.053119864 0.76700002 4278190080
-0.13963576 -0.049981982 0.76700002 4278190080
-0.13676684 -0.049623363 0.76700002 4278190080
-0.13343462 -0.049852874 0.76639998 4278190082
-0.13036165 -0.049053445 0.7665 4278190080
-0.12742145 -0.049490463 0.76633334 4278190080
-0.12464929 -0.050061174 0.7665 4278190080
-0.1210326 -0.050430249 0.76700002 4278190080
-0.11834298 -0.050430249 0.76700002 4278190080
-0.11565337 -0.050430249 0.76700002 4278190080
-0.17056164 -0.076853856 0.76900005 4278190081
-0.16921332 -0.074831396 0.76900005 4278190080
-0.11191001 -0.051910065 0.76900005 4278190080
-0.10921338 -0.051910065 0.76900005 4278190080
-0.12404484 -0.049213439 0.76900005 4278190080
-0.1213482 -0.049213439 0.76900005 4278190080
-0.11932573 -0.049213439 0.76900005 4278190080
-0.11258417 -0.050561752 0.76900005 4278190080
-0.13887627 -0.047865123 0.76900005 4278190080
-0.13617966 -0.047865123 0.76900005 4278190080
-0.13348302 -0.047865123 0.76900005 4278190080
-0.13078639 -0.047865123 0.76900005 4278190080
-0.12876393 -0.047865123 0.76900005 4278190080
-0.18364677 -0.08064194 0.77300006 4278190080
-0.17867079 -0.07985995 0.77200007 4278190080
-0.11803702 -0.048523206 0.77233338 4278190080
-0.11531673 -0.049034595 0.77150005 4278190080
-0.11271801 -0.049017649 0.77300006 4278190080
-0.10963944 -0.050081335 0.77200007 4278190080
-0.10707082 -0.050147094 0.77300006 4278190080
-0.14233597 -0.046864472 0.77157146 4278190080
-0.13941805 -0.046020616 0.77200007 4278190080
-0.13671091 -0.046020616 0.77200007 4278190080
-0.13366494 -0.04635945 0.77200001 4278190080
-0.13011137 -0.046758775 0.77300006 4278190080
-0.12723589 -0.047374193 0.77200007 4278190080
-0.12452874 -0.047374193 0.77200007 4278190080
-0.1218216 -0.047374193 0.77200007 4278190080
-0.11979125 -0.047374193 0.77200007 4278190080
-0.17936075 -0.078484461 0.77399999 4278190083
-0.11603034 -0.048176341 0.77400005 4278190080
-0.1119591 -0.048176341 0.77400005 4278190080
-0.10992348 -0.048176341 0.77400005 4278190080
-0.14830394 -0.046259947 0.77600002 4278190080
-0.14520755 -0.04546218 0.77400005 4278190596
-0.13299385 -0.04546218 0.77400005 4278190080
-0.13027969 -0.04546218 0.77400005 4278190080
-0.12756552 -0.04546218 0.77400005 4278190080
-0.12485136 -0.04546218 0.77400005 4278190080
-0.12145866 -0.04546218 0.77399999 4278190080
-0.1181418 -0.046170089 0.77450001 4278190080
-0.1155749 -0.046229701 0.77550006 4278190080
-0.1129287 -0.046940241 0.77600002 4278190080
-0.14471576 -0.04348179 0.77500004 4278190080
-0.14267749 -0.04348179 0.77500004 4278190080
-0.13958779 -0.043357126 0.77520001 4278190080
-0.13625538 -0.043606453 0.7748 4278190080
-0.13299385 -0.044105098 0.77400005 4278190080
-0.13027969 -0.044105098 0.77400005 4278190080
-0.1277312 -0.04416208 0.77500004 4278190080
-0.12438556 -0.044181075 0.7753334 4278190080
-0.12109222 -0.044219065 0.77600002 4278190080
-0.11905133 -0.044219065 0.77600002 4278190080
-0.15073232 -0.04706122 0.77800006 4278190080
-0.14936823 -0.045697127 0.77800006 4278190080
-0.14800414 -0.044333033 0.77800006 4278190080
-0.14664005 -0.044333033 0.77800006 4278190080
-0.13368115 -0.04296894 0.77800006 4278190080
-0.13095295 -0.04296894 0.77800006 4278190080
-0.1241325 -0.04296894 0.77800006 4278190080
-0.12140431 -0.04296894 0.77800006 4278190080
-0.11844877 -0.043423638 0.77800006 4278190080
-0.11617529 -0.043878336 0.77800006 4278190080
-0.1418657 -0.041604847 0.77800006 4278190080
-0.13913751 -0.041604847 0.77800006 4278190080
-0.13640934 -0.041604847 0.77800006 4278190080
-0.13368115 -0.041604847 0.77800006 4278190080
-0.15679094 -0.046558008 0.78100002 4278190080
-0.15463787 -0.046527766 0.78049999 4278190080
-0.1520967 -0.046290044 0.78033334 4278190080
-0.15170541 -0.044028535 0.78066665 4278190080
-0.1487745 -0.043435108 0.78025001 4278190080
-0.1292382 -0.043079402 0.78000003 4278190080
-0.12718679 -0.043079402 0.78000003 4278190080
-0.1148784 -0.043079402 0.78000003 4278190080
-0.14446677 -0.041080602 0.78100002 4278190080
-0.14223039 -0.040344197 0.78000003 4278190080
-0.13958463 -0.039685383 0.78050005 4278190080
-0.13684766 -0.039685383 0.78050005 4278190080
-0.1330837 -0.040027723 0.78050005 4278190080
-0.13051681 -0.040843461 0.78083342 4278190080
-0.12734985 -0.041080602 0.78100002 4278190080
-0.12457149 -0.041067231 0.78075004 4278190080
-0.12179442 -0.041053861 0.78049999 4278190080
-0.11879672 -0.040380646 0.78071439 4278190080
-0.11534759 -0.04118545 0.78039998 4278190080
-0.11246698 -0.041291002 0.78066665 4278190080
-0.10954826 -0.041765276 0.78100002 4278190080
-0.10749424 -0.041765276 0.78100002 4278190080
-0.1340248 -0.038976602 0.78000003 4278190080
-0.1603467 -0.047484647 0.78500003 4278190080
-0.15876785 -0.04673598 0.78400004 4278190080
-0.15759398 -0.044731915 0.78500003 4278190080
-0.15454538 -0.043959137 0.78350002 4278190083
-0.15120834 -0.041925706 0.78400004 4278190080
-0.14816572 -0.041449096 0.78366667 4278190080
-0.14639631 -0.041237526 0.78400004 4278190080
-0.14245395 -0.03922645 0.78500003 4278190080
-0.12973528 -0.039126512 0.78300005 4278190080
-0.12767598 -0.039126512 0.78300005 4278190080
-0.12493026 -0.039126512 0.78300005 4278190080
-0.12218454 -0.039126512 0.78300005 4278190080
-0.11737953 -0.039126512 0.78300005 4278190080
-0.11532024 -0.039126512 0.78300005 4278190080
-0.1123457 -0.03958413 0.78300005 4278190080
-0.10958421 -0.040010892 0.78420007 4278190080
-0.10584523 -0.041237526 0.78400004 4278190080
-0.10328156 -0.041449096 0.78366667 4278190338
-0.10116295 -0.041979183 0.78500003 4278190080
-0.1360876 -0.037801869 0.78400004 4278190080
-0.13333662 -0.037801869 0.78400004 4278190080
-0.13075483 -0.037850086 0.78500003 4278190080
-0.12800209 -0.037850086 0.78500003 4278190080
-0.12456117 -0.037850086 0.78500003 4278190080
-0.12112027 -0.037850086 0.78500003 4278190080
-0.19939171 -0.075203098 0.787 4278190080
-0.19663195 -0.075203098 0.78700006 4278190080
-0.19571204 -0.073363274 0.787 4278190592
-0.19249234 -0.071063481 0.78700006 4278190080
-0.16075525 -0.046225756 0.78700006 4278190080
-0.15937537 -0.044845883 0.78700006 4278190080
-0.15385588 -0.042086139 0.78700006 4278190080
-0.10004082 -0.042086139 0.78700006 4278190080
-0.09774103 -0.042546097 0.787 4279242768
-0.15109614 -0.040706262 0.78700006 4278190080
-0.14902633 -0.040016327 0.78700006 4278190080
-0.14557664 -0.039326392 0.787 4278190080
-0.10832006 -0.039326392 0.78700006 4278190080
-0.10694019 -0.039326392 0.78700006 4278190080
-0.10280056 -0.040706262 0.78700006 4278190080
-0.10142069 -0.040706262 0.78700006 4278190080
-0.14212696 -0.037946519 0.78700006 4278190080
-0.13936721 -0.037946519 0.78700006 4278190080
-0.13660747 -0.036566645 0.78700006 4278190080
-0.13453765 -0.036566645 0.78700006 4278190080
-0.13039804 -0.036566645 0.787 4278190080
-0.12694836 -0.036566645 0.78700006 4278190080
-0.1241886 -0.036566645 0.78700006 4278190080
-0.12142885 -0.036566645 0.78700006 4278190080
-0.11866912 -0.037946519 0.78700006 4278190080
-0.11590937 -0.037946519 0.78700006 4278190080
-0.11245968 -0.037946519 0.787 4278190080
-0.19897616 -0.073549703 0.78900003 4278190080
-0.19713165 -0.072627448 0.78900003 4278191616
-0.19637537 -0.070842557 0.78966665 4278322176
-0.16611078 -0.04637216 0.7895 4278190081
-0.1633423 -0.045680031 0.7895 4278190080
-0.16073261 -0.04333223 0.78960001 4278190080
-0.15780526 -0.042911515 0.7895 4278190080
-0.15563025 -0.042193089 0.78900003 4278190080
-0.15444236 -0.040861432 0.79000002 4278190080
-0.15154411 -0.039904114 0.78933334 4278190080
-0.10582857 -0.03942633 0.78900003 4278190080
-0.10381881 -0.039451316 0.7895 4278453513
-0.1008415 -0.039920773 0.78966665 4280230165
-0.097300708 -0.040276345 0.78939998 4282465600
-0.1481159 -0.038067058 0.7895 4278190080
-0.1452549 -0.038042948 0.78900003 4278190080
-0.13349617 -0.036659569 0.78900003 4278190080
-0.11897068 -0.036659569 0.78900003 4278190080
-0.11551223 -0.036659569 0.78900003 4278190080
-0.11205378 -0.036659569 0.78900003 4278190080
-0.10956404 -0.03759731 0.78933334 4278190080
-0.10658732 -0.038067058 0.7895 4278190080
-0.13280448 -0.035276189 0.78900003 4278190080
-0.13003772 -0.035276189 0.78900003 4278190080
-0.12709387 -0.034829382 0.78933334 4278190080
-0.12450419 -0.0345845 0.78900003 4278190080
-0.12181459 -0.03460598 0.7895 4278190080
-0.11837864 -0.034613431 0.78966665 4278190080
-0.11519692 -0.034859192 0.79000002 4278190080
-0.11288837 -0.0353209 0.79000002 4278190080
-0.18724373 -0.059166234 0.79400003 4278190080
-0.18434328 -0.058432903 0.79350007 4278321153
-0.1726262 -0.046636913 0.79400003 4278519552
-0.16932465 -0.046094548 0.79266673 4278190592
-0.16733111 -0.0451308 0.79200006 4278256896
-0.16636153 -0.04385262 0.79400003 4278190080
-0.16396341 -0.043074582 0.79250008 4278190080
-0.16288117 -0.041068327 0.79400003 4278255616
-0.16038792 -0.040964883 0.79200006 4278190080
-0.15761064 -0.040964883 0.79200006 4278190080
-0.15433455 -0.039626211 0.79300004 4278190080
-0.099287756 -0.039576244 0.79200006 4282991688
-0.094427519 -0.039576244 0.79200006 4280098847
-0.15155375 -0.038235817 0.79300004 4278190080
-0.14408718 -0.036891885 0.79400003 4278190080
-0.14199895 -0.036891885 0.79400003 4278190082
-0.13955833 -0.036798961 0.79200006 4278190087
-0.10900825 -0.036798961 0.79200006 4278190085
-0.10631922 -0.036829937 0.79266673 4281741097
-0.10327975 -0.037669312 0.79280007 4281213720
-0.10010833 -0.037539743 0.7930001 4282794294
-0.09732753 -0.037539743 0.79300004 4283585867
-0.094545871 -0.038235817 0.79300004 4281811518
-0.091881678 -0.038284034 0.79400003 4282862158
-0.13921466 -0.03549974 0.79400003 4278190080
-0.13643037 -0.03549974 0.79400003 4278190080
-0.13364607 -0.034107592 0.79400003 4278190080
-0.13053216 -0.034021679 0.79200006 4278190080
-0.1284492 -0.034021679 0.79200006 4278190080
-0.1145628 -0.034021679 0.79200006 4280293657
-0.1123425 -0.034513194 0.79266673 4280360968
-0.10997958 -0.034803666 0.79400003 4279505684
-0.10684726 -0.035151701 0.79400003 4282135866
-0.12738141 -0.032715447 0.79400003 4278190080
-0.12459713 -0.032715447 0.79399997 4278190080
-0.12096421 -0.031978168 0.7930001 4280097024
-0.11818343 -0.031978168 0.79300004 4279703065
-0.11540177 -0.032674246 0.79300004 4280226058
-0.11345996 -0.032715447 0.79400003 4281871156
-0.193298 -0.06210658 0.79600006 4278190080
-0.17934147 -0.052337002 0.79600006 4278255616
-0.17306101 -0.045358736 0.79600006 4278190080
-0.17096755 -0.045358736 0.79600006 4278190080
-0.16887406 -0.043963082 0.79600006 4278321666
-0.16678058 -0.042567428 0.79600006 4278190080
-0.16538492 -0.040473949 0.79600006 4278386944
-0.16398928 -0.039776124 0.79600006 4278190080
-0.15770884 -0.040473949 0.79600006 4278190080
-0.1542197 -0.038380466 0.79600006 4278190080
-0.14724143 -0.036984816 0.79600006 4278190080
-0.14584579 -0.036984816 0.79600006 4278190080
-0.09490443 -0.036984816 0.79600006 4283781703
-0.091415301 -0.037682641 0.79600006 4283057987
-0.14165881 -0.035589162 0.79600006 4278190080
-0.13677403 -0.034193508 0.79600006 4278190080
-0.10606965 -0.034193508 0.79600006 4284374367
-0.10327835 -0.034891337 0.79600006 4280627231
-0.10048705 -0.034891333 0.79600006 4284113490
-0.097695738 -0.035589162 0.79600006 4283518016
-0.1332849 -0.032797854 0.79600006 4278190083
-0.1304936 -0.032797854 0.79600006 4278190082
-0.12700444 -0.0314022 0.79600006 4279111182
-0.12421315 -0.0314022 0.79600006 4281084677
-0.12142184 -0.030006548 0.79600006 4283253029
-0.11863054 -0.030006548 0.79600006 4281874990
-0.11607184 -0.030936984 0.79600006 4280953653
-0.11304793 -0.032100029 0.79600006 4283714893
-0.10955879 -0.032797854 0.79600006 4281086513
-0.10606965 -0.032797854 0.79600006 4283849821
-0.10118487 -0.032797854 0.79600006 4285361740
-0.19938029 -0.069258422 0.79800004 4278190080
-0.18748744 -0.058065139 0.79800004 4278452225
-0.18164532 -0.054703996 0.80000001 4278190082
-0.17161188 -0.043427438 0.79900002 4278190592
-0.16929837 -0.042674378 0.79800004 4278190341
-0.1692072 -0.040843312 0.79866672 4278190080
-0.16719963 -0.040575638 0.79800004 4278321152
-0.16060533 -0.039976001 0.80000001 4278190080
-0.15880467 -0.039876062 0.79800004 4278190080
-0.15920267 -0.038573332 0.80000001 4278190080
-0.15670592 -0.038476903 0.79800004 4278190080
-0.15429333 -0.037170667 0.80000001 4278190080
-0.15110928 -0.03707774 0.79800004 4278190080
-0.14901054 -0.03707774 0.79800004 4278190080
-0.15148799 -0.035767999 0.80000001 4278190080
-0.14868267 -0.035767999 0.80000001 4278190080
-0.14587733 -0.035767999 0.80000001 4278190080
-0.14318597 -0.034803081 0.79933333 4278190080
-0.139916 -0.034279421 0.79800004 4278190080
-0.13956533 -0.032962669 0.80000001 4278255616
-0.13571209 -0.032467645 0.79933333 4278190081
-0.13308677 -0.030819215 0.79900002 4278520333
-0.13028495 -0.030819217 0.79900002 4279176726
-0.12748399 -0.030119637 0.79900002 4280755755
-0.12452524 -0.030081941 0.79800004 4281346053
-0.11473112 -0.030081941 0.79800004 4284048481
-0.11207306 -0.030819217 0.79900002 4282206020
-0.10927124 -0.030819215 0.79900002 4282469709
-0.10646942 -0.030819217 0.79900002 4283192659
-0.11852533 -0.028754665 0.80000001 4280756771
-0.18936613 -0.055613104 0.80300003 4278190080
-0.187067 -0.05531732 0.8028 4278190080
-0.18428557 -0.055566639 0.80233335 4278190080
-0.1631161 -0.040075943 0.80200005 4278190080
-0.16613534 -0.038717981 0.80300003 4278190083
-0.16321823 -0.038693875 0.80250001 4278190080
-0.16040325 -0.037989911 0.80250001 4278190080
-0.15768778 -0.037310056 0.80300003 4278190080
-0.15979968 -0.035902131 0.80300003 4278190080
-0.15768778 -0.035902131 0.80300003 4278190080
-0.15482394 -0.035186991 0.80274999 4278190080
-0.1519614 -0.033768766 0.80250001 4278190080
-0.14874351 -0.033632267 0.80260003 4278190080
-0.1455843 -0.033758461 0.80225003 4278255616
-0.1427266 -0.033045072 0.80200005 4278190080
-0.14431249 -0.031678349 0.80300003 4279176448
-0.14220059 -0.031678349 0.80300003 4278190080
-0.13903438 -0.031182742 0.80233335 4278650632
-0.13669015 -0.030714018 0.80233335 4278915349
-0.13633423 -0.028393187 0.80300003 4282796074
-0.13366975 -0.028140564 0.80250001 4280231213
-0.13081512 -0.028132016 0.80225003 4283253066
-0.12796178 -0.028123468 0.80200005 4282334510
-0.12449777 -0.028134866 0.80233335 4282663481
-0.12121582 -0.027900502 0.80233335 4282663726
-0.11819176 -0.027437475 0.80250001 4282730045
-0.1153781 -0.028140564 0.80250001 4284112989
-0.112564 -0.028140564 0.80250001 4282008893
-0.10974991 -0.028140564 0.80250001 4284574048
-0.10690271 -0.028132016 0.80225003 4284439382
-0.13304907 -0.026046643 0.80300003 4283584079
-0.1308561 -0.026030425 0.80250001 4283451971
-0.12731101 -0.02602502 0.80233335 4282137660
-0.11544999 -0.026046643 0.80300003 4284375393
-0.11239948 -0.025577335 0.80300003 4284900960
-0.11005294 -0.025577335 0.80300003 4284308560
-0.10700242 -0.026046643 0.80300003 4283848780
-0.10418657 -0.026046643 0.80300003 4283716691
-0.16302055 -0.037402987 0.80500007 4278190080
-0.16160913 -0.037402987 0.80500007 4278190080
-0.15737483 -0.034580119 0.80500007 4278190080
-0.15525767 -0.033168685 0.80500007 4278190084
-0.15031765 -0.03175725 0.80500007 4280427542
-0.14820051 -0.03175725 0.80500007 4280164874
-0.14537764 -0.031051533 0.80500007 4280229392
-0.14255476 -0.030345816 0.80500007 4279703067
-0.14043762 -0.030345816 0.80500007 4279440147
-0.1397319 -0.028934384 0.80500007 4281611064
-0.13761476 -0.027522951 0.80500007 4283255859
-0.13620332 -0.026111517 0.80500007 4280164622
-0.1347919 -0.026111517 0.80500007 4281281324
-0.1305576 -0.024700085 0.80500007 4282008119
-0.127029 -0.024700085 0.80500007 4282009401
-0.12420614 -0.026111517 0.80500007 4284374616
-0.12138328 -0.026111517 0.80500007 4282597936
-0.1185604 -0.026111517 0.80500007 4284374609
-0.11503182 -0.024700085 0.80500007 4285229931
-0.11362039 -0.024700085 0.80500007 4285164138
-0.10938609 -0.024700085 0.80500007 4284048735
-0.10656322 -0.024700085 0.80500007 4282274892
-0.10303463 -0.025405802 0.80500007 4282534734
-0.15918076 -0.034666032 0.80700004 4279046144
-0.15776582 -0.033251088 0.80700004 4279310625
-0.15390146 -0.031915046 0.80900002 4280824115
-0.15210605 -0.031836152 0.80700004 4280888093
-0.14856869 -0.030421209 0.80700004 4280296476
-0.14644629 -0.030421209 0.80700004 4280492835
-0.14574379 -0.028581379 0.8083334 4282663477
-0.14308603 -0.02833299 0.80800003 4280362027
-0.14007905 -0.027591331 0.80700004 4281479478
-0.14184466 -0.026241263 0.80900002 4282991422
-0.13900778 -0.025532041 0.80900002 4282664512
-0.13665451 -0.025253551 0.80766672 4282729781
-0.13371183 -0.02476145 0.80700004 4284438087
-0.12451472 -0.02476145 0.80700004 4283914058
-0.12168484 -0.02476145 0.80700004 4283715397
-0.11885496 -0.02476145 0.80700004 4284965467
-0.11673256 -0.02476145 0.80700004 4284834655
-0.10258316 -0.02476145 0.80700004 4281813068
-0.13017449 -0.02263904 0.80700004 4283058495
-0.12734459 -0.02263904 0.80700004 4283059262
-0.12505971 -0.022931553 0.80900002 4283321655
-0.12198641 -0.023404369 0.80900002 4283583806
-0.11844029 -0.023404369 0.80900002 4284307280
-0.11489418 -0.023404369 0.80900002 4283321416
-0.11205728 -0.023404369 0.80900002 4283782971
-0.10895038 -0.02334651 0.80700004 4282204984
-0.1061205 -0.02334651 0.80700004 4278262553
-0.1035466 -0.022695147 0.80900002 4278190085
-0.10094612 -0.022931553 0.80900002 4278190080
-0.16565756 -0.037681762 0.81100005 4278190080
-0.15996975 -0.033415902 0.81100005 4280032788
-0.15570389 -0.031993952 0.81100005 4279639584
-0.15214901 -0.030571997 0.81100005 4281151517
-0.14788315 -0.028439067 0.81100005 4282334781
-0.14503925 -0.025595162 0.81100005 4282397988
-0.14219534 -0.024884185 0.81100005 4283844674
-0.14006241 -0.024884185 0.81100005 4283386182
-0.13864045 -0.02346223 0.81100005 4283124289
-0.13650753 -0.02346223 0.81100005 4283189565
-0.13366362 -0.02346223 0.81100005 4283913026
-0.12442091 -0.022040276 0.81100005 4283780936
-0.12228799 -0.022040276 0.81100005 4283123007
-0.11802213 -0.022040276 0.81100005 4283650381
-0.11517823 -0.022040276 0.81100005 4282071867
-0.11233431 -0.022040276 0.81100005 4281021226
-0.10949041 -0.022040276 0.81100005 4281216306
-0.1066465 -0.022040276 0.81100005 4278586121
-0.10024771 -0.022040276 0.81100005 4278190080
-0.11162334 -0.020618323 0.81100005 4278190080
-0.10949041 -0.020618323 0.81100005 4278190080
-0.10735748 -0.020618323 0.81100005 4278190085
-0.1038026 -0.020618323 0.81100005 4278190080
-0.15822606 -0.03207285 0.81300002 4279901997
-0.15504289 -0.030722784 0.81500006 4281809447
-0.15361391 -0.029293817 0.81500006 4282401052
-0.15098451 -0.028769569 0.81366664 4280821790
-0.14896058 -0.02779647 0.81300002 4282795590
-0.14813125 -0.025916314 0.81366664 4283057462
-0.14539692 -0.02352009 0.81300002 4282331652
-0.14242472 -0.023063054 0.81366664 4282924587
-0.14016177 -0.022606021 0.81433338 4282991422
-0.13360839 -0.022148984 0.81500006 4283714882
-0.12045137 -0.02209463 0.81300002 4283649352
-0.12416844 -0.020694595 0.81400001 4281412903
-0.12131226 -0.020694595 0.81400001 4280557345
-0.11860424 -0.020720018 0.81500006 4280623138
