# .PCD v0.7 - Point Cloud Data file format
VERSION 0.7
FIELDS x y z rgba
SIZE 4 4 4 4
TYPE F F F U
COUNT 1 1 1 1
WIDTH 1031
HEIGHT 1
VIEWPOINT 0 0 0 1 0 0 0
POINTS 1031
DATA ascii
-0.1526829 -0.10680956 0.78100002 4278190080
-0.15932539 -0.099151 0.78000003 4278190080
-0.15727401 -0.099151 0.78000003 4278190080
-0.16016284 -0.097192742 0.78075004 4278190080
-0.15747562 -0.097224087 0.78100002 4278190080
-0.15366185 -0.11289976 0.78366667 4278190080
-0.15307389 -0.1098288 0.78300005 4278190080
-0.15150057 -0.10932822 0.78433341 4278190080
-0.15111059 -0.10646459 0.78350002 4278190080
-0.15432927 -0.094960704 0.78380001 4278190080
-0.15150057 -0.095117457 0.78433341 4278190080
-0.14933577 -0.095657483 0.78500003 4278190080
-0.15523575 -0.11797918 0.78700006 4278190080
-0.15454581 -0.11590937 0.78700006 4278190080
-0.15247601 -0.11521943 0.78700006 4278190080
-0.15164807 -0.11273565 0.78700006 4278190080
-0.15109614 -0.10969993 0.78700006 4278190080
-0.14971626 -0.10832006 0.78700006 4278190080
-0.1483364 -0.097281076 0.78700006 4278190080
-0.15155609 -0.093601406 0.787 4278190080
-0.14879636 -0.094981283 0.787 4278190080
-0.14695652 -0.095211267 0.78700006 4278190080
-0.15127954 -0.11584711 0.78939998 4278190080
-0.14490905 -0.097182438 0.78900003 4278190080
-0.14277095 -0.0973498 0.78979999 4278190080
-0.14059104 -0.097651899 0.79000002 4278190080
-0.15009673 -0.093378149 0.78900003 4278190080
-0.14802167 -0.093378149 0.78900003 4278190080
-0.14534651 -0.09482158 0.7895 4278190080
-0.15127987 -0.091487356 0.78939998 4278190080
-0.14820927 -0.092111364 0.79000002 4278190080
-0.13712645 -0.10023456 0.79400003 4278190082
-0.13973367 -0.09732753 0.7930001 4278190080
-0.14523387 -0.093812101 0.79266673 4278190080
-0.14227213 -0.094709098 0.79320014 4278190080
-0.14858449 -0.090955921 0.79200006 4278190080
-0.14561048 -0.091927618 0.79320014 4278190080
-0.14269502 -0.092577755 0.79400003 4278190080
-0.15155257 -0.088288806 0.79300004 4278190080
-0.1490989 -0.088679746 0.79400003 4278190080
-0.14687148 -0.089793459 0.79400003 4278190080
-0.13607621 -0.10048704 0.79600006 4278190080
-0.13468054 -0.10048704 0.79600006 4278190080
-0.13886751 -0.096997917 0.79600006 4278190080
-0.13700664 -0.097928345 0.79600006 4278190080
-0.13979794 -0.095137037 0.79600006 4278190080
-0.14491534 -0.090484858 0.79600006 4278190080
-0.14235663 -0.092113122 0.79600006 4278190080
-0.14770664 -0.08769355 0.79600006 4278190080
-0.14584579 -0.088623993 0.79600006 4278190080
-0.1305725 -0.10674819 0.79933333 4278190080
-0.13279746 -0.10339055 0.79866672 4278190080
-0.13082147 -0.10423742 0.79800004 4278190080
-0.13325334 -0.10099199 0.80000001 4278190080
-0.13588859 -0.097362593 0.79900002 4278190080
-0.13395466 -0.098887995 0.80000001 4278190080
-0.13914452 -0.09374442 0.7992 4278190080
-0.13711242 -0.094599925 0.79933333 4278190080
-0.14259978 -0.090787597 0.79866672 4278190080
-0.139916 -0.091523997 0.80000001 4278190080
-0.14527945 -0.087913893 0.79800004 4278190080
-0.14330578 -0.088601768 0.80000001 4278190080
-0.14587733 -0.086263999 0.80000001 4278190080
-0.12763478 -0.10990437 0.80260003 4278190080
-0.13007104 -0.10616609 0.80200005 4278190080
-0.12824903 -0.10714825 0.80233335 4278190080
-0.13050367 -0.10341774 0.80250001 4278190080
-0.12882529 -0.10418657 0.80300003 4278190080
-0.13288337 -0.09913522 0.80200005 4278190080
-0.13097961 -0.10030995 0.80239999 4278190080
-0.13569573 -0.096322879 0.80200005 4278190080
-0.13362789 -0.097055994 0.80225003 4278190080
-0.13164115 -0.097146943 0.80300003 4278190080
-0.13569573 -0.09421362 0.80200005 4278190080
-0.13371117 -0.094301499 0.80274999 4278190080
-0.13164115 -0.095035054 0.80300003 4278190083
-0.13921115 -0.090698183 0.80200005 4278190080
-0.13644111 -0.091429539 0.80225003 4278190080
-0.13398768 -0.091749884 0.80300003 4278190080
-0.14178915 -0.088354558 0.80200005 4278190080
-0.13934113 -0.088671543 0.80274999 4278190080
-0.13656887 -0.088699378 0.80300003 4278190080
-0.13445699 -0.089403339 0.80300003 4278190080
-0.14523232 -0.085451543 0.80225003 4278190080
-0.14215609 -0.085856564 0.80274999 4278190080
-0.14008871 -0.086587489 0.80300003 4278190080
-0.1263233 -0.10938609 0.80500007 4278190080
-0.12726425 -0.10656322 0.80500007 4278190081
-0.12914616 -0.10232892 0.80500007 4278190080
-0.12914616 -0.10021177 0.80500007 4278190080
-0.088214584 -0.099506058 0.80500007 4278190080
-0.086803153 -0.099506058 0.80500007 4278190080
-0.1305576 -0.097388908 0.80500007 4278190080
-0.088214584 -0.09809462 0.80500007 4278190080
-0.086803153 -0.09809462 0.80500007 4278190080
-0.13126332 -0.09456604 0.80500007 4278190087
-0.13338046 -0.091037452 0.80500007 4278190080
-0.13196903 -0.09244889 0.80500007 4278190080
-0.13408618 -0.088920303 0.80500007 4278190080
-0.13949667 -0.085862197 0.80500007 4278190080
-0.13690904 -0.086803153 0.80500007 4278190080
-0.12485281 -0.11918956 0.80766672 4278190081
-0.12269563 -0.11985874 0.80900002 4278190082
-0.12466813 -0.11545964 0.80800003 4278190080
-0.12269563 -0.11489418 0.80900002 4278190080
-0.12477895 -0.11231555 0.80779999 4278190080
-0.12269563 -0.11205728 0.80900002 4278190080
-0.12466813 -0.10908539 0.80800003 4278190080
-0.12198641 -0.10922039 0.80900002 4278190080
-0.12663713 -0.1061205 0.80700004 4278190080
-0.1248233 -0.1063835 0.80900002 4278190080
-0.12269563 -0.1063835 0.80900002 4278190080
-0.12734461 -0.10329062 0.80700004 4278190080
-0.1248233 -0.1035466 0.80900002 4278190080
-0.12269563 -0.1035466 0.80900002 4278190080
-0.12742306 -0.10052255 0.8075 4278190080
-0.1248233 -0.10070971 0.80900002 4278190080
-0.087234467 -0.10141893 0.80900002 4278190080
-0.085106798 -0.10070971 0.80900002 4278190080
-0.12946701 -0.097630858 0.80700004 4278190080
-0.12750152 -0.097751833 0.80800009 4278190080
-0.12553254 -0.097872823 0.80900002 4278190080
-0.08772628 -0.096923389 0.80700004 4278190080
-0.085000724 -0.097751833 0.80800003 4278190080
-0.13004561 -0.094642885 0.80766672 4278190083
-0.12789661 -0.095272332 0.80900002 4278190080
-0.090071365 -0.094326697 0.80900002 4278190080
-0.087834984 -0.094917573 0.80800003 4278190080
-0.085343204 -0.095272332 0.80900002 4278190083
-0.13229689 -0.091263629 0.80700004 4278190080
-0.13077061 -0.091786996 0.80850005 4278190080
-0.090071365 -0.092199028 0.80900002 4278190080
-0.087943688 -0.092199035 0.80900002 4278190080
-0.085816018 -0.092908256 0.80900002 4279505425
-0.13512677 -0.08701881 0.80700004 4278190080
-0.13316917 -0.088542454 0.80800003 4278190080
-0.13948555 -0.084258474 0.80766672 4278190080
-0.13671002 -0.085355334 0.80800009 4278190080
-0.12442091 -0.11802213 0.81100005 4278190080
-0.12228799 -0.11802213 0.81100005 4278190080
-0.12157702 -0.11517823 0.81100005 4278190080
-0.12110303 -0.11209732 0.81100005 4278190080
-0.12015506 -0.11020139 0.81100005 4278190080
-0.12157702 -0.1066465 0.81100005 4278190080
-0.12157702 -0.1038026 0.81100005 4278190080
-0.087450132 -0.10309162 0.81100005 4278190080
-0.085317194 -0.10309162 0.81100005 4278190080
-0.12252498 -0.10119567 0.81100005 4278190080
-0.12442091 -0.098114781 0.81100005 4278190080
-0.12299897 -0.098825753 0.81100005 4278190080
-0.083184272 -0.098114781 0.81100005 4280033306
-0.12773882 -0.093611926 0.81100005 4278190080
-0.12584287 -0.095981851 0.81100005 4278190080
-0.084606223 -0.093848921 0.81100005 4279900182
-0.082615487 -0.094844297 0.81100005 4283452997
-0.13010873 -0.091005012 0.81100005 4278190080
-0.12868679 -0.091715991 0.81100005 4278190080
-0.090294041 -0.090294041 0.81100005 4278190080
-0.088161111 -0.090294041 0.81100005 4278190080
-0.085317194 -0.091005012 0.81100005 4281152819
-0.13295265 -0.087450132 0.81100005 4278190080
-0.13081971 -0.088872083 0.81100005 4278190080
-0.13579655 -0.084606223 0.81100005 4278190080
-0.13437459 -0.086028174 0.81100005 4278190080
-0.11931872 -0.14218219 0.81500006 4278190080
-0.11917232 -0.13986778 0.81400001 4278190080
-0.11845784 -0.136298 0.81400001 4278190080
-0.11826847 -0.13349794 0.81433338 4278190080
-0.11826847 -0.13016717 0.81433338 4278190080
-0.11826847 -0.12683643 0.81433338 4278190080
-0.11845784 -0.12416756 0.81400001 4278190080
-0.1188424 -0.1188424 0.81500006 4278190080
-0.12045137 -0.11546226 0.81300002 4278190080
-0.11931872 -0.1157463 0.81500006 4278190080
-0.12045137 -0.11332406 0.81300002 4278190080
-0.1188424 -0.11265021 0.81500006 4278190080
-0.12045137 -0.10904769 0.81300002 4278190080
-0.11860424 -0.11003044 0.81500006 4278651399
-0.12055015 -0.10628268 0.81366664 4278190080
-0.1188424 -0.10741067 0.81500006 4279177738
-0.12074769 -0.10360008 0.81500006 4279048208
-0.12187684 -0.099782199 0.81300002 4278387206
-0.12387856 -0.096772604 0.81366664 4279242765
-0.12217665 -0.097884215 0.81500006 4280491579
-0.081963949 -0.097644009 0.81300002 4281084189
-0.1261532 -0.094080359 0.81300002 4278190080
-0.12455827 -0.094549961 0.81500006 4279570462
-0.12900412 -0.090516709 0.81300002 4278190080
-0.12731157 -0.091616631 0.81433338 4279045644
-0.083389409 -0.091942169 0.81300002 4283060815
-0.13064232 -0.088285886 0.81433338 4278190080
-0.088432431 -0.088432431 0.81349999 4279835424
-0.085527599 -0.089091249 0.81300002 4282862406
-0.13344358 -0.085632801 0.81400001 4278387206
-0.11961152 -0.14897722 0.81700003 4278190080
-0.11913404 -0.14587355 0.81700009 4278190080
-0.11853717 -0.14288922 0.81700003 4278190080
-0.11817905 -0.1389499 0.81700003 4278190080
-0.11674657 -0.12963884 0.81700003 4278190080
-0.11626908 -0.12725139 0.81700009 4278190080
-0.11603034 -0.11603034 0.81700003 4278915082
-0.11817905 -0.11388163 0.81700003 4278190080
-0.11638846 -0.11280727 0.81700003 4278851350
-0.11674657 -0.10886797 0.81700003 4280560173
-0.11889529 -0.10600303 0.81700003 4280100371
-0.11674657 -0.10671926 0.81700003 4281413937
-0.12104399 -0.10242184 0.81700003 4279639064
-0.11961152 -0.10313807 0.81700003 4278855970
-0.12104399 -0.10027313 0.81700003 4281480501
-0.12247647 -0.096691951 0.81700003 4281741373
-0.12390894 -0.093827002 0.81700003 4281214255
-0.12247647 -0.095259473 0.81700003 4281281322
-0.12677389 -0.090962052 0.81700003 4281545273
-0.12534142 -0.091678292 0.81700003 4281675071
-0.12963884 -0.08809711 0.81700003 4278190336
-0.12749013 -0.089529589 0.81700003 4281611355
-0.13250378 -0.085232168 0.81700003 4280165417
-0.13059381 -0.086187147 0.81700009 4281087273
-0.13536873 -0.083083451 0.81700003 4280823851
-0.13345876 -0.083322197 0.81700009 4283255615
-0.12180459 -0.16667381 0.82020009 4278190080
-0.11832458 -0.16004515 0.82050008 4278190080
-0.11775035 -0.15149592 0.81900007 4278190080
-0.11587867 -0.15186584 0.82100004 4278190080
-0.11775036 -0.14790595 0.81900007 4278190080
-0.11703237 -0.14503399 0.81900007 4278190080
-0.11703237 -0.14216202 0.81900007 4278190080
-0.11703237 -0.13929006 0.81900007 4278190080
-0.11587867 -0.1396302 0.82100004 4278190080
-0.11703237 -0.1364181 0.81900007 4278190080
-0.11508836 -0.13666838 0.82050002 4278190080
-0.11703237 -0.13354614 0.81900007 4278190080
-0.11530475 -0.13400289 0.82033342 4278190080
-0.11703237 -0.13139218 0.81900007 4278190080
-0.11494809 -0.13075441 0.81950009 4278190080
-0.11463907 -0.12804157 0.81900007 4278190080
-0.11416041 -0.1148784 0.81900007 4280431905
-0.1129997 -0.11515893 0.82100004 4279839768
-0.077012539 -0.11515893 0.82100004 4279899161
-0.1148784 -0.11200644 0.81900007 4280629551
-0.1129997 -0.1129997 0.82100004 4280497936
-0.081330992 -0.11227996 0.82100004 4278190080
-0.07989151 -0.11227996 0.82100004 4278190080
-0.11501779 -0.10926774 0.82000005 4280494633
-0.11775036 -0.10554454 0.81900007 4281549625
-0.11530475 -0.10667485 0.82033342 4280823344
-0.11775036 -0.10339057 0.81900007 4281419587
-0.11851598 -0.10055921 0.81933337 4281743923
-0.12095925 -0.09748622 0.81966668 4282136900
-0.11868446 -0.098184913 0.82050002 4282072630
-0.12141351 -0.094832987 0.81950003 4282269500
-0.12383354 -0.091737621 0.81966668 4281609530
-0.12220646 -0.0927338 0.82000005 4282466625
-0.12780222 -0.088312775 0.81900007 4282466625
-0.1243846 -0.088846289 0.82014292 4282401098
-0.087088943 -0.087088943 0.82100004 4283320900
-0.13043486 -0.084483497 0.81900007 4281679400
-0.12790625 -0.085509188 0.81966668 4282467382
-0.12537298 -0.086058579 0.82033342 4283387727
-0.13857208 -0.081132874 0.81900007 4280757277
-0.1364181 -0.081132874 0.81900007 4281479228
-0.13330682 -0.081611536 0.81900007 4283584582
-0.13083375 -0.081949919 0.82000005 4283257149
-0.12883405 -0.082050741 0.82100004 4281945932
-0.1419227 -0.078739576 0.81900007 4280493061
-0.13666752 -0.079123117 0.82050002 4282400565
-0.13411218 -0.079411685 0.82100004 4282859601
-0.13099329 -0.07989151 0.82100004 4283518268
-0.14491214 -0.075928979 0.81966668 4280626437
-0.14233473 -0.076918736 0.82000005 4282531635
-0.14034994 -0.077012539 0.82100004 4284374624
-0.14808653 -0.073323525 0.82000005 4282203942
-0.1461079 -0.07413356 0.82100004 4282139963
-0.14898688 -0.071254596 0.82100004 4282134580
-0.12409742 -0.18181716 0.82300001 4278190080
-0.12337592 -0.17893118 0.82300001 4278190080
-0.12193294 -0.17604518 0.82300001 4278190080
-0.12048995 -0.1731592 0.82300001 4278190080
-0.12048995 -0.16955172 0.82300001 4278190080
-0.11856595 -0.16281776 0.82300001 4278190080
-0.11616097 -0.15728626 0.82300001 4278190080
-0.11616097 -0.14862831 0.82300001 4278190080
-0.11616097 -0.14574233 0.82300001 4278190080
-0.11616097 -0.14285633 0.82300001 4278190080
-0.10990799 -0.11856594 0.82300001 4280690722
-0.11183198 -0.11543946 0.82300001 4280428319
-0.11038899 -0.11616097 0.82300001 4282335289
-0.11231297 -0.11231297 0.82300001 4280429607
-0.078643136 -0.11327497 0.82300001 4281544490
-0.11327497 -0.10966749 0.82300001 4281021229
-0.082250617 -0.11038899 0.82300001 4278190080
-0.080086127 -0.11038899 0.82300001 4278190080
-0.11471796 -0.10606001 0.82300001 4281478195
-0.11327497 -0.107503 0.82300001 4281282099
-0.11616097 -0.10389552 0.82300001 4280562226
-0.11616097 -0.10100953 0.82300001 4282271543
-0.11760395 -0.097402051 0.82300001 4282731332
-0.12048995 -0.093794562 0.82300001 4282271535
-0.11832544 -0.094516061 0.82300001 4282665533
-0.12121144 -0.09090858 0.82300001 4282598715
-0.12337592 -0.08730109 0.82300001 4281746250
-0.12193294 -0.088744089 0.82300001 4281415230
-0.12626192 -0.084415108 0.82300001 4282928462
-0.12409742 -0.085136607 0.82300001 4283259226
-0.12722391 -0.082491122 0.82300001 4281353280
-0.1327554 -0.078643136 0.82300001 4283057232
-0.1298694 -0.079364628 0.82300001 4284375393
-0.14285633 -0.075757146 0.82300001 4282598215
-0.13972984 -0.076238148 0.82300001 4282795312
-0.13732487 -0.076719142 0.82300001 4281810475
-0.13419837 -0.077200145 0.82300001 4282995043
-0.14550184 -0.073352158 0.82300001 4282072378
-0.14285633 -0.073592655 0.82300001 4282860603
-0.14069185 -0.074314155 0.82300001 4284112202
-0.1483878 -0.070466168 0.82300001 4282794314
-0.14574233 -0.071428172 0.82300001 4283058496
-0.13572992 -0.20853709 0.82500005 4278190080
-0.13412562 -0.20880094 0.82700002 4278190080
-0.13323843 -0.20565197 0.82600003 4278190080
-0.13235475 -0.20251 0.82500005 4278190080
-0.1312256 -0.20300093 0.82700002 4278190080
-0.13235475 -0.20034026 0.82500005 4278190080
-0.13034192 -0.19985898 0.82600009 4278190080
-0.13004853 -0.19712465 0.82566673 4278190080
-0.12760058 -0.19647589 0.82700002 4278190080
-0.12542558 -0.19502591 0.82700002 4278190080
-0.12763536 -0.19374597 0.82566673 4278190080
-0.12494224 -0.19260921 0.82699996 4278190080
-0.12470058 -0.18995087 0.82700002 4278190080
-0.1243578 -0.18714117 0.82633334 4278190080
-0.12252556 -0.18632585 0.82700002 4278190080
-0.12464008 -0.18491091 0.82500005 4278190080
-0.12252556 -0.18487585 0.82700002 4278190080
-0.12367576 -0.18298225 0.82500005 4278190080
-0.12176778 -0.18142179 0.82580012 4278190080
-0.11962555 -0.18052582 0.82700002 4278190080
-0.12126491 -0.17816059 0.82500005 4278190080
-0.11890054 -0.17835082 0.82700002 4278190080
-0.12078276 -0.17574975 0.82500005 4278190080
-0.118613 -0.1692405 0.82500005 4278190080
-0.118613 -0.1663475 0.82500005 4278190080
-0.11672553 -0.16675076 0.82700002 4278190080
-0.11788975 -0.16417775 0.82500005 4278190080
-0.11672553 -0.16385075 0.82700002 4278190080
-0.11585939 -0.16075613 0.82600003 4278190080
-0.10648841 -0.12460005 0.82633334 4281414187
-0.10648841 -0.12170237 0.82633334 4280165920
-0.10921075 -0.11788975 0.82500005 4281019931
-0.10676099 -0.11893053 0.82620013 4280889126
-0.10969292 -0.11547891 0.82500005 4282467629
-0.10716987 -0.11586027 0.82600003 4282008882
-0.1095523 -0.1127367 0.82539999 4280824619
-0.10716987 -0.11368789 0.82600003 4278393115
-0.078834251 -0.11210375 0.82500005 4281742123
-0.077481553 -0.11296289 0.82600003 4282068271
-0.11210375 -0.109934 0.82500005 4281021500
-0.10962322 -0.10962322 0.82675004 4281942584
-0.082450502 -0.10921075 0.82500005 4278190080
-0.11253332 -0.1063813 0.82550007 4282202931
-0.11092551 -0.10657549 0.82700002 4282795325
-0.082450502 -0.107041 0.82500005 4279505423
-0.11499675 -0.104148 0.82500005 4281545272
-0.11296289 -0.10354924 0.82600009 4281413419
-0.11542808 -0.10023017 0.82550007 4282204477
-0.11373377 -0.10069305 0.82633334 4282204222
-0.11585939 -0.097032972 0.82600009 4280758066
-0.11382552 -0.097875446 0.82700002 4280956225
-0.11585939 -0.094136469 0.82600003 4281348408
-0.118613 -0.091129497 0.82500005 4282795839
-0.11672553 -0.092075422 0.82700002 4282729284
-0.12126493 -0.087995417 0.82500005 4280824863
-0.11882822 -0.08839649 0.82650006 4280956207
-0.12367576 -0.084620252 0.82500005 4283259221
-0.12172648 -0.085498236 0.82650006 4281022769
-0.11962555 -0.086275391 0.82700002 4281416485
-0.12656876 -0.081727251 0.82500005 4280889389
-0.12454891 -0.082550436 0.82600003 4281679676
-0.12946175 -0.078834251 0.82500005 4283521625
-0.12744541 -0.079653934 0.82600009 4280889902
-0.12542558 -0.080475368 0.82700002 4280955433
-0.13597101 -0.07594125 0.82500005 4284046159
-0.13283692 -0.076423414 0.82500005 4281480235
-0.13042125 -0.076803453 0.82650006 4282402358
-0.12832558 -0.077575356 0.82700002 4281548087
-0.14103375 -0.073048249 0.82500005 4283716929
-0.13886401 -0.073771499 0.82500005 4282664248
-0.13613582 -0.073860042 0.82600009 4283321663
-0.13364227 -0.074192002 0.82699996 4281084954
-0.1312256 -0.074675336 0.82700002 4281610283
-0.1460965 -0.070155248 0.82500005 4283585076
-0.14248025 -0.070878498 0.82499999 4282466115
-0.13911603 -0.071006931 0.82650006 4282663995
-0.13630062 -0.071775325 0.82700002 4281745199
-0.14210066 -0.068150312 0.82700002 4282335553
-0.14462458 -0.22602133 0.82900006 4278190080
-0.14462458 -0.22384107 0.82900006 4278190080
-0.14317106 -0.22456782 0.82900006 4278190080
-0.14317106 -0.22020727 0.82900006 4278190080
-0.13372323 -0.21075943 0.82900006 4278190080
-0.13299648 -0.20857917 0.82900006 4278190080
-0.13154297 -0.20712565 0.82900006 4278190080
-0.13081621 -0.20494539 0.82900006 4278190080
-0.13008945 -0.20276512 0.82900006 4278190080
-0.12863594 -0.2013116 0.82900006 4278190080
-0.12766694 -0.1993736 0.82900006 4278190080
-0.12500215 -0.1962243 0.82900006 4278190080
-0.12427539 -0.19404404 0.82900006 4278190080
-0.12282188 -0.19331728 0.82900006 4278190080
-0.12282188 -0.19041026 0.82900006 4278190080
-0.12209512 -0.18750322 0.82900006 4278190080
-0.11991484 -0.18677646 0.82900006 4278190080
-0.12136836 -0.1845962 0.82900006 4278190080
-0.11991484 -0.1845962 0.82900006 4278190080
-0.11894584 -0.18193142 0.82900006 4278190080
-0.10537972 -0.13372323 0.82900006 4280756510
-0.10537972 -0.13154297 0.82900006 4279838253
-0.1039262 -0.13008945 0.82900006 4278714627
-0.1039262 -0.12790918 0.82900006 4279836184
-0.1039262 -0.12500215 0.82900006 4280429342
-0.1039262 -0.12209512 0.82900006 4279442212
-0.10537972 -0.11773458 0.82900006 4279572757
-0.1039262 -0.11846133 0.82900006 4280097563
-0.10537972 -0.11482756 0.82900006 4278854699
-0.1039262 -0.11555431 0.82900006 4278190080
-0.10683323 -0.11192053 0.82900006 4280297013
-0.10828675 -0.10828675 0.82900006 4278191872
-0.10683323 -0.10974026 0.82900006 4281413937
-0.11119377 -0.10537972 0.82900006 4281215275
-0.10974026 -0.10683323 0.82900006 4280560675
-0.11119377 -0.10319945 0.82900006 4281544740
-0.11216278 -0.10053468 0.82900006 4281414454
-0.11410081 -0.096658632 0.82900006 4280953927
-0.11264729 -0.098112151 0.82900006 4280033579
-0.11410081 -0.094478369 0.82900006 4280098350
-0.11700783 -0.090844586 0.82900006 4280559923
-0.11555431 -0.091571346 0.82900006 4281087541
-0.11700783 -0.088664316 0.82900006 4280561221
-0.11918809 -0.085757285 0.82900006 4280167979
-0.12282188 -0.082850263 0.82900006 4281152820
-0.12500215 -0.07994324 0.82900006 4280823850
-0.12790918 -0.077036202 0.82900006 4280628250
-0.13299648 -0.073402427 0.82900006 4280560425
-0.13081621 -0.074129179 0.82900006 4281678126
-0.14026403 -0.069041885 0.82900006 4281941826
-0.13663025 -0.070495397 0.82900006 4281744683
-0.13444999 -0.071948916 0.82900006 4280760609
-0.14026403 -0.067588374 0.82900006 4280428586
-0.1432599 -0.22303891 0.83233339 4278190080
-0.14205946 -0.22073853 0.83100003 4278190080
-0.14022957 -0.21994428 0.83166671 4278190080
-0.1327475 -0.21225151 0.83200002 4278190080
-0.13128874 -0.21079275 0.83200002 4278190080
-0.13088897 -0.20859669 0.83100003 4278190080
-0.1304033 -0.20616832 0.83100003 4278190080
-0.12894627 -0.2047113 0.83100003 4278190080
-0.12807719 -0.20293169 0.83166671 4278190080
-0.12603222 -0.19961174 0.83100003 4278190080
-0.12428825 -0.19968916 0.83233339 4278190080
-0.12360386 -0.19694053 0.83100003 4278190080
-0.12195398 -0.19717109 0.83300006 4278190080
-0.12158884 -0.19315466 0.83300006 4278190080
-0.12088269 -0.18995935 0.83233339 4278190080
-0.12166117 -0.18868409 0.83100003 4278190080
-0.11830266 -0.18694742 0.83300006 4278190080
-0.11815976 -0.18453395 0.83200008 4278190080
-0.11611187 -0.18402638 0.83300006 4278190080
-0.1172901 -0.18139899 0.83100003 4278190080
-0.11611187 -0.18183558 0.83300006 4278190080
-0.11319081 -0.18037505 0.83300006 4278190080
-0.11495888 -0.17877635 0.83100003 4278190080
-0.10150661 -0.14605267 0.83300006 4278784787
-0.10357203 -0.14295979 0.83200008 4280821789
-0.10345105 -0.13963774 0.83220005 4280230424
-0.10434408 -0.13644879 0.83233339 4280692252
-0.1033704 -0.13304439 0.83233339 4279902749
-0.10357203 -0.13128874 0.83200002 4279044887
-0.10150661 -0.12925661 0.83300006 4280886087
-0.10271991 -0.12748925 0.83100003 4279835929
-0.10093852 -0.12672129 0.83233339 4278914069
-0.10271991 -0.12384669 0.83100003 4279112214
-0.10085729 -0.12418947 0.83166671 4279177731
-0.10271991 -0.12093266 0.83100003 4280099111
-0.10138474 -0.12107731 0.83200002 4279900694
-0.10284352 -0.11815976 0.83200002 4278386944
-0.10150661 -0.11903293 0.83300006 4278321156
-0.10357203 -0.11524397 0.83200002 4279704852
-0.10563394 -0.11219054 0.83100003 4280099377
-0.10417693 -0.11219054 0.83100003 4280754986
-0.10611963 -0.10903367 0.83100003 4278915590
-0.10903367 -0.10611963 0.83100003 4280954655
-0.10940713 -0.10357291 0.83200002 4280298276
-0.11146203 -0.099805869 0.83100003 4279704614
-0.10953951 -0.10077634 0.83300006 4279115798
-0.11194771 -0.097377501 0.83100003 4281151285
-0.11026977 -0.097855285 0.83300006 4280165669
-0.11219054 -0.094706312 0.83100003 4280492318
-0.11026977 -0.095664501 0.83300006 4279639836
-0.11437608 -0.091792256 0.83100003 4280561453
-0.11232468 -0.091902718 0.83200008 4278390024
-0.11510458 -0.088878222 0.83100003 4280429077
-0.11270398 -0.089335553 0.833 4278257416
-0.11777578 -0.085721344 0.83100003 4279772191
-0.1155321 -0.08634495 0.83233339 4278848280
-0.12112612 -0.082453124 0.83233339 4280036390
-0.11903293 -0.083980285 0.83300006 4280693019
-0.12399574 -0.07950227 0.83200008 4279836699
-0.12195398 -0.079598702 0.83300006 4278390784
-0.12731989 -0.076275088 0.8318001 4281153824
-0.1327475 -0.072209284 0.83200002 4279511587
-0.13071714 -0.073756598 0.83300006 4279639584
-0.1391454 -0.069208443 0.83100003 4282006837
-0.1363395 -0.069263972 0.83166671 4281614133
-0.13420627 -0.070750505 0.83200002 4280694311
-0.13655925 -0.067914493 0.83300006 4278979090
-0.14127922 -0.2232651 0.83500004 4278190080
-0.13981518 -0.2232651 0.83500004 4278190080
-0.13103099 -0.21374887 0.83500004 4278190080
-0.12956695 -0.21008877 0.83500004 4278190080
-0.12810291 -0.21008877 0.83500004 4278190080
-0.12956695 -0.20789273 0.83500004 4278190080
-0.12810291 -0.20789273 0.83500004 4278190080
-0.12737089 -0.20496467 0.83500004 4278190080
-0.12663887 -0.20276862 0.83500004 4278190080
-0.12444283 -0.2020366 0.83500004 4278190080
-0.12151477 -0.19910854 0.83500004 4278190080
-0.12078276 -0.19618046 0.83500004 4278190080
-0.12078276 -0.19398442 0.83500004 4278190080
-0.11931872 -0.19252038 0.83500004 4278190080
-0.1185867 -0.19032434 0.83500004 4278190080
-0.11785469 -0.18812829 0.83500004 4278190080
-0.11639065 -0.18739626 0.83500004 4278190080
-0.11492661 -0.18446819 0.83500004 4278190080
-0.11492661 -0.18227215 0.83500004 4278190080
-0.11199855 -0.18080811 0.83500004 4278190080
-0.11199855 -0.17934409 0.83500004 4278190080
-0.11053452 -0.17788005 0.83500004 4278190080
-0.10101829 -0.1449393 0.83500004 4280033571
-0.1012623 -0.14176723 0.83500004 4280098577
-0.1012623 -0.13932717 0.83500004 4279572244
-0.10321435 -0.1361551 0.83500004 4280626974
-0.10175031 -0.1361551 0.83500004 4279902519
-0.10028628 -0.12151477 0.83500004 4279769109
-0.10077429 -0.1183427 0.83500004 4278190089
-0.10321435 -0.11492661 0.83500004 4281085735
-0.10175031 -0.11565863 0.83500004 4280096030
-0.10321435 -0.11273056 0.83500004 4280491814
-0.11785469 -0.084181912 0.83500004 4278190080
-0.11931872 -0.081985861 0.83500004 4279575809
-0.12371082 -0.078325778 0.83500004 4278784014
-0.12127077 -0.078813791 0.83500004 4278584576
-0.12663887 -0.075397715 0.83500004 4280561181
-0.12468684 -0.076373734 0.83500004 4279245593
-0.13029897 -0.073201664 0.83500004 4278852117
-0.13249502 -0.071005613 0.83500004 4279774758
-0.13835114 -0.066613518 0.83500004 4279372051
-0.1361551 -0.06734553 0.83500004 4279110162
-0.12840974 -0.21646215 0.83700001 4278190080
-0.12987728 -0.21499459 0.83700001 4278190080
-0.12840974 -0.21499459 0.83700001 4278190080
-0.12987728 -0.21205953 0.83700001 4278190080
-0.12782764 -0.21157736 0.83800006 4278190080
-0.12709387 -0.20864053 0.83800006 4278190080
-0.12577449 -0.2081531 0.83900005 4278190080
-0.1269422 -0.20618936 0.83700001 4278190080
-0.12562457 -0.20570195 0.83800006 4278190080
-0.12400713 -0.20325428 0.83700001 4278190080
-0.12268599 -0.20276335 0.83800006 4278190080
-0.12107204 -0.2003192 0.83700001 4278190080
-0.1197474 -0.19688618 0.83800006 4278190080
-0.11872024 -0.19411474 0.83766669 4278190080
-0.1169482 -0.19344264 0.83900005 4278190080
-0.11562941 -0.19034858 0.83833337 4278190080
-0.11253507 -0.1890295 0.83900005 4278190080
-0.114604 -0.1873349 0.83800006 4278190080
-0.11253507 -0.18682292 0.83900005 4278190080
-0.11324516 -0.18466544 0.83700007 4278190080
-0.11235505 -0.18236391 0.83766669 4278190080
-0.10959298 -0.18093875 0.83900005 4278190080
-0.10909371 -0.17851825 0.83800006 4278190592
-0.10665088 -0.17726111 0.83900005 4278190080
-0.10933173 -0.17683858 0.83700001 4279308561
-0.10615513 -0.1752128 0.838 4279047955
-0.12400713 -0.075578302 0.83700001 4278190337
-0.12987728 -0.072643228 0.83700001 4278193665
-0.12782852 -0.07346379 0.838 4278519813
-0.13370481 -0.069791436 0.83800006 4278594598
-0.13106371 -0.070798725 0.83833337 4278191880
-0.13574745 -0.066773064 0.83700001 4278255619
-0.13411044 -0.067913331 0.83900005 4278190090
-0.13694322 -0.064919211 0.83833337 4278190080
-0.12754886 -0.21307296 0.84100002 4278190080
-0.12607431 -0.21012385 0.84100002 4278190080
-0.12386248 -0.20717473 0.84100002 4278190080
-0.1201761 -0.19980198 0.84100002 4278190080
-0.11821003 -0.19881894 0.84100002 4278190080
-0.11771851 -0.19636136 0.84100002 4278190080
-0.11526092 -0.19586985 0.84100002 4278190080
-0.11206605 -0.19021738 0.84100002 4278651140
-0.11132877 -0.18726826 0.84100002 4278192384
-0.11132877 -0.18431917 0.84100002 4278191616
-0.10985422 -0.18358189 0.84100002 4278651648
-0.10837967 -0.18137005 0.84100002 4278585344
-0.11528867 -0.19953811 0.84300005 4278190336
-0.11333985 -0.20001149 0.84500003 4279309067
-0.11246493 -0.19681518 0.84400004 4278914823
-0.11037672 -0.19630758 0.84500003 4279177728
-0.11208621 -0.19387221 0.84300011 4278716931
-0.10979578 -0.19368577 0.84433335 4278979584
-0.11159353 -0.19140878 0.84300005 4279175936
-0.10944088 -0.19078328 0.84350002 4279308548
-0.10741358 -0.18815896 0.84500003 4278654208
-0.10913011 -0.18500386 0.84300011 4278521856
-0.10675024 -0.18465669 0.84366673 4278916358
-0.10445045 -0.18445505 0.84500003 4278982163
-0.10568129 -0.18254042 0.84300005 4280034331
-0.10352513 -0.18190965 0.84350002 4279442200
-0.10074653 -0.18075113 0.84500003 4278389776
-0.10272517 -0.17884526 0.84300005 4278454794
-0.10083333 -0.17873979 0.84366673 4278455564
-0.065034643 -0.16332564 0.84300005 4280294689
-0.065034643 -0.16184756 0.84300005 4280755486
-0.11212304 -0.19974238 0.84700006 4279506944
-0.11063797 -0.19899984 0.84700006 4278652672
-0.10915289 -0.19528715 0.84700006 4279045139
-0.10766782 -0.19231701 0.84700006 4279438598
-0.10766782 -0.19083193 0.84700006 4278980614
-0.10618275 -0.18711925 0.84700006 4278981131
-0.10469767 -0.18637671 0.84700006 4279308561
-0.1032126 -0.18489164 0.84700006 4279178535
-0.10172753 -0.18340656 0.84700006 4278915614
-0.097272307 -0.17449611 0.84700006 4278192390
-0.10879346 -0.19970468 0.85000002 4279373832
-0.10879346 -0.19746916 0.85000002 4279110933
-0.10730312 -0.19597882 0.85000002 4278716171
-0.10633494 -0.19402894 0.85060006 4279045639
-0.1058128 -0.19076265 0.85000002 4279047429
-0.10370002 -0.19024104 0.85100001 4278719238
-0.10357729 -0.187782 0.85000002 4278982161
-0.10134178 -0.18480046 0.85000002 4278914583
-0.10631161 -0.19914711 0.85400003 4278716424
-0.10556294 -0.19690108 0.85400003 4278650631
-0.10406559 -0.19615242 0.85400003 4278191374
-0.10331692 -0.19315772 0.85400003 4278258187
-0.10256825 -0.19016302 0.85400003 4278785288
-0.1010709 -0.18641967 0.85400003 4278980614
-0.099573553 -0.18492231 0.85400003 4278190080
-0.098076202 -0.18342496 0.85400003 4278190592
-0.09732753 -0.18117896 0.85400003 4278190849
-0.10280846 -0.19586137 0.85600007 4279310373
-0.1013076 -0.19285966 0.85600007 4278322688
-0.10080732 -0.19035824 0.85600013 4278191616
-0.10030704 -0.18785681 0.85600013 4278256897
-0.10079212 -0.19406244 0.85800004 4278190849
-0.10003994 -0.1918059 0.85800004 4278190080
-0.17551482 -0.10029417 0.77300006 4278190080
-0.1721265 -0.10029417 0.77300006 4278190089
-0.17551482 -0.098261185 0.77300006 4278190080
-0.17845602 -0.097031213 0.77399999 4278190080
-0.17506333 -0.097031221 0.77400005 4278190080
-0.17836836 -0.095228791 0.7748 4278190080
-0.17528951 -0.095117457 0.77500004 4278386690
-0.1734748 -0.095921353 0.77600002 4278190094
-0.17869623 -0.093440391 0.77800006 4278190080
-0.17665009 -0.093440391 0.77800006 4278190080
-0.17163381 -0.096415795 0.78000003 4278190080
-0.16021433 -0.095170058 0.78100002 4278190080
-0.16062462 -0.094040908 0.78300005 4278190080
-0.15754665 -0.094638094 0.7834 4278190080
-0.15828216 -0.092904754 0.78500003 4278190080
-0.16722855 -0.08877565 0.78500003 4278190080
-0.15661563 -0.093141451 0.78700006 4278190080
-0.15454581 -0.093141451 0.78700006 4278190080
-0.16259508 -0.090841658 0.787 4278190080
-0.16029529 -0.09130162 0.787 4278190080
-0.1667347 -0.088081919 0.787 4278190080
-0.16489488 -0.089001834 0.78700006 4278190080
-0.15978038 -0.090611391 0.78900003 4278190080
-0.15775508 -0.091331787 0.78925002 4278190080
-0.15464084 -0.091233648 0.78960001 4278190080
-0.16531391 -0.087844625 0.78900003 4278190080
-0.16323885 -0.088536315 0.78900003 4278190080
-0.16057377 -0.088591985 0.7895 4278190080
-0.15813605 -0.088879384 0.79000002 4278190080
-0.15582749 -0.089341097 0.79000002 4278190080
-0.16927293 -0.085674353 0.78939998 4278190080
-0.16611078 -0.085823476 0.7895 4278190080
-0.16344574 -0.085878268 0.79000002 4278190080
-0.16136803 -0.086570829 0.79000002 4278190080
-0.15691632 -0.088178642 0.79200006 4278190080
-0.15426879 -0.088251702 0.79266673 4278190080
-0.17149705 -0.084012724 0.79200006 4278190080
-0.1696271 -0.084118798 0.79300004 4278190080
-0.16663679 -0.084012724 0.79200006 4278190080
-0.16357724 -0.084224872 0.79399997 4278190080
-0.16035782 -0.085276581 0.79300004 4278190080
-0.15749142 -0.086320803 0.79280007 4278190080
-0.1724079 -0.082728401 0.79300004 4278190080
-0.16984189 -0.082832724 0.79400003 4278190080
-0.1670576 -0.082832724 0.79400003 4278190080
-0.16427332 -0.082832724 0.79400003 4278190080
-0.15770884 -0.084437035 0.79600006 4278190080
-0.15491752 -0.085134856 0.79600006 4278190080
-0.15170753 -0.085274421 0.79600006 4278190080
-0.14863709 -0.085832678 0.79600006 4278190080
-0.20516104 -0.08164572 0.79600006 4278190080
-0.16957188 -0.08164572 0.79600006 4278190082
-0.16608274 -0.08164572 0.79600006 4278190080
-0.16259362 -0.083041377 0.79600006 4278190080
-0.16050014 -0.083041377 0.79600006 4278190080
-0.15770884 -0.083041377 0.79600006 4278190080
-0.1988806 -0.080250069 0.79600006 4278190080
-0.1504097 -0.084649183 0.79800004 4278190080
-0.14820109 -0.08518628 0.79866672 4278190080
-0.21127316 -0.081850864 0.79800004 4278190080
-0.20917441 -0.081850864 0.79800004 4278190080
-0.16327332 -0.081987619 0.79933333 4278190080
-0.16060533 -0.082055993 0.80000001 4278190080
-0.15600634 -0.083250023 0.79800004 4278190080
-0.1539076 -0.083250023 0.79800004 4278190080
-0.15110928 -0.083250023 0.79800004 4278190080
-0.14938401 -0.083458669 0.80000001 4278190080
-0.20077947 -0.080451697 0.79800004 4278190080
-0.16670868 -0.07985118 0.79900002 4278190080
-0.16481332 -0.079952002 0.80000001 4278190080
-0.15960068 -0.082261145 0.80200005 4278190080
-0.15749142 -0.082261145 0.80200005 4278190080
-0.15477505 -0.082312427 0.80250001 4278190080
-0.15205607 -0.08236371 0.80300003 4278190080
-0.14773983 -0.083719477 0.80250001 4278190080
-0.14572041 -0.083771639 0.80300003 4278190080
-0.21400484 -0.080955781 0.80300003 4278190080
-0.210926 -0.080854967 0.80200005 4278190080
-0.20830806 -0.080226615 0.80274999 4278190080
-0.20555729 -0.080955781 0.80300003 4278190080
-0.2034454 -0.080955781 0.80300003 4278190080
-0.16613534 -0.078139931 0.80300003 4278190080
-0.1631839 -0.079481229 0.80233335 4278190080
-0.16043702 -0.07951425 0.80266666 4278190080
-0.15768778 -0.08025182 0.80300003 4278190080
-0.16613534 -0.076732002 0.80300003 4278190080
-0.16402346 -0.076732002 0.80300003 4278190080
-0.15596339 -0.081157416 0.80500007 4278190080
-0.15031765 -0.082568854 0.80500007 4278190080
-0.14890622 -0.082568854 0.80500007 4278190080
-0.14467192 -0.083980285 0.80500007 4278190080
-0.14255476 -0.083980285 0.80500007 4278190080
-0.21524359 -0.079745986 0.80500007 4278190336
-0.21171501 -0.079745986 0.80500007 4278190080
-0.20606928 -0.079745986 0.80500007 4278190080
-0.15808055 -0.078334555 0.80500007 4278190080
-0.16866629 -0.076923124 0.80500007 4278190080
-0.16654915 -0.075511687 0.80500007 4278190080
-0.16090341 -0.076923124 0.80500007 4278190080
-0.15422845 -0.081359051 0.80700004 4278190080
-0.15139857 -0.081359051 0.80700004 4278190080
-0.14833288 -0.081830703 0.80699998 4278190080
-0.14573881 -0.082066521 0.80700004 4278190080
-0.1427664 -0.082370721 0.80860007 4278190080
-0.21436341 -0.079944111 0.80700004 4278190080
-0.15654463 -0.079333946 0.80800003 4278190080
-0.15461069 -0.079433009 0.80900002 4278190080
-0.15177378 -0.079433009 0.80900002 4278190080
-0.1489369 -0.079433009 0.80900002 4278190080
-0.1461 -0.08014223 0.80900002 4278190080
-0.14397234 -0.08014223 0.80900002 4278190080
-0.21347621 -0.077305339 0.80900002 4278190080
-0.21134855 -0.077305339 0.80900002 4278190090
-0.1697928 -0.075699292 0.80700004 4278190080
-0.16362721 -0.076146834 0.80800003 4278190080
-0.16028447 -0.076596119 0.80900002 4278190080
-0.1581568 -0.077305339 0.80900002 4278190080
-0.18323474 -0.074284345 0.80700004 4278190080
-0.18117456 -0.073934264 0.8083334 4278190080
-0.17896068 -0.073995627 0.80900002 4278190080
-0.17283659 -0.073667169 0.80800009 4278190080
-0.16936351 -0.074407078 0.8083334 4278190083
-0.16666748 -0.074468449 0.80900002 4278190080
-0.14148435 -0.081762321 0.81100005 4278190080
-0.13958842 -0.082710288 0.81100005 4278190080
-0.14717218 -0.078918412 0.81100005 4278190080
-0.14503923 -0.078918412 0.81100005 4278190080
-0.14290632 -0.080340363 0.81100005 4278190080
-0.15996975 -0.076074511 0.81100005 4278190080
-0.15783682 -0.076785482 0.81100005 4278190080
-0.15499292 -0.076785482 0.81100005 4278190080
-0.15172243 -0.076927677 0.81100005 4278190336
-0.14788315 -0.077496454 0.81100005 4278190080
-0.14575021 -0.077496454 0.81100005 4278190080
-0.18769784 -0.073230594 0.81100005 4278190080
-0.18485394 -0.073230594 0.81100005 4278190080
-0.182721 -0.073230594 0.81100005 4278190080
-0.17134538 -0.073230594 0.81100005 4278190080
-0.16921246 -0.073230594 0.81100005 4278190082
-0.16636854 -0.073941574 0.81100005 4278190080
-0.16352464 -0.074652553 0.81100005 4278190080
-0.16139171 -0.074652553 0.81100005 4278190080
-0.18129905 -0.071808644 0.81100005 4278190080
-0.17490026 -0.071808644 0.81100005 4278190080
-0.17205636 -0.071808644 0.81100005 4278190080
-0.16921246 -0.071808644 0.81100005 4278190080
-0.091942169 -0.091229439 0.81300002 4278190080
-0.093597315 -0.087881453 0.81500006 4278190080
-0.091229439 -0.088378519 0.81300002 4278190080
-0.094080359 -0.085527599 0.81300002 4278190080
-0.091453865 -0.086452484 0.81500006 4278190080
-0.089310423 -0.086452484 0.81500006 4279572769
-0.13898234 -0.081963949 0.81300002 4278190080
-0.13709621 -0.082828782 0.81450003 4278190080
-0.14242472 -0.079653054 0.81366664 4278190080
-0.15932979 -0.075020753 0.81500006 4278190080
-0.15751332 -0.076262109 0.81300002 4278190080
-0.15361391 -0.075020753 0.81500006 4278190080
-0.151109 -0.075434536 0.81433338 4278190080
-0.1484302 -0.075641431 0.81400001 4278256641
-0.14575461 -0.077164203 0.81500006 4278190086
-0.18648015 -0.072162814 0.81500006 4278190080
-0.16586213 -0.072578937 0.81433338 4278190080
-0.16341504 -0.072787002 0.81400001 4278190080
-0.16060026 -0.07351885 0.81420004 4278190080
-0.15699346 -0.07421422 0.81400001 4278190080
-0.15443973 -0.074006744 0.81433338 4278190080
-0.19314983 -0.071985729 0.81300002 4278190080
-0.19172436 -0.071985729 0.81300002 4278190080
-0.17290497 -0.070733853 0.81500006 4278190080
-0.17004704 -0.070733853 0.81500006 4278190080
-0.16769758 -0.071359791 0.81400001 4278190080
-0.086664632 -0.08809711 0.81700003 4283190348
-0.091678292 -0.085232168 0.81700003 4278255616
-0.08881335 -0.0859484 0.81700003 4281873200
-0.093827002 -0.08379969 0.81700003 4278190080
-0.091678292 -0.08379969 0.81700003 4278780941
-0.1425311 -0.07950227 0.81700003 4278190094
-0.13966614 -0.080934748 0.81700003 4278190080
-0.14611229 -0.075921088 0.81700003 4279310096
-0.19553262 -0.072339907 0.81700003 4278190080
-0.15757206 -0.072339907 0.81700003 4278190080
-0.15470713 -0.072339907 0.81700003 4278715648
-0.15184218 -0.073772371 0.81700003 4278190080
-0.14969346 -0.073772371 0.81700003 4278190080
-0.15542336 -0.070907429 0.81700003 4279110921
-0.089030765 -0.084722824 0.81900007 4283122502
-0.13946013 -0.079074457 0.82000005 4282268990
-0.1514959 -0.072516993 0.81900007 4281939733
-0.20080839 -0.071254596 0.82100004 4278190080
-0.15446121 -0.070046544 0.81950003 4282596145
-0.15142927 -0.070609361 0.82020009 4282136344
-0.15690404 -0.068375617 0.82100004 4282991686
-0.15474482 -0.068375617 0.82100004 4283321421
-0.15728626 -0.067099191 0.82300001 4283321682
-0.15367877 -0.068542175 0.82300001 4281676339
-0.15151429 -0.068542175 0.82300001 4281809451
-0.096192248 -0.084620252 0.82500005 4278190080
-0.099085256 -0.083173752 0.82500005 4278190080
-0.1547755 -0.067262255 0.82500005 4281941314
-0.1518825 -0.067262255 0.82500005 4281875787
-0.14869861 -0.067906074 0.82580006 4281875515
-0.14536449 -0.068261996 0.82660007 4283517769
-0.15792333 -0.064472117 0.82633334 4282006320
-0.15508789 -0.0644987 0.82666677 4282663474
-0.15170695 -0.064706549 0.82700008 4282927674
-0.14790069 -0.065975301 0.82700002 4282860610
-0.14535134 -0.066134855 0.82900006 4282335555
-0.14244431 -0.066134855 0.82900006 4281810243
-0.14825836 -0.064681344 0.82900006 4281874490
-0.1562527 -0.061774317 0.82900006 4282796582
-0.15479918 -0.061774317 0.82900006 4282993705
-0.13939658 -0.067143463 0.8325001 4279176474
-0.15116452 -0.063532911 0.83300006 4281746752
-0.14897373 -0.063532911 0.83300006 4281022002
-0.14617862 -0.064454585 0.83233339 4280756533
-0.14313161 -0.064993441 0.83300006 4280756028
-0.16338348 -0.060539093 0.83200002 4282601031
-0.16051503 -0.061437678 0.83100003 4282797635
-0.15808667 -0.061923347 0.83100003 4282731834
-0.15408558 -0.062072389 0.83300006 4282862376
-0.16357899 -0.059151333 0.83300006 4280955695
-0.1613882 -0.059151333 0.83300006 4280956727
-0.1449393 -0.063685454 0.83500004 4280165671
-0.14201124 -0.064417467 0.83500004 4279768610
-0.13981518 -0.065149486 0.83500004 4278911252
-0.16031165 -0.06075738 0.83500004 4281944897
-0.1581156 -0.06075738 0.83500004 4281484339
-0.15518755 -0.06075738 0.83500004 4280824607
-0.15225947 -0.062221419 0.83500004 4282269992
-0.16397174 -0.057829317 0.83500004 4281479213
-0.16031165 -0.059293348 0.83500004 4281023022
-0.14161761 -0.06383799 0.83700001 4279044887
-0.13928217 -0.064378016 0.83766669 4278190082
-0.15335792 -0.060902908 0.83700001 4281414437
-0.15115283 -0.061489105 0.83833337 4281743149
-0.14822152 -0.062370449 0.83700001 4280363296
-0.16216317 -0.057967827 0.83700001 4281479730
-0.15984409 -0.058503181 0.83766669 4281285168
-0.15721437 -0.058770858 0.838 4281019667
-0.15427494 -0.059506383 0.83800006 4279834905
-0.16255066 -0.056635298 0.83900005 4278190080
-0.16107962 -0.056635298 0.83900005 4278191104
-0.14892988 -0.061193962 0.84100002 4279836958
-0.15482809 -0.058244858 0.84100002 4279832074
-0.15187898 -0.05971941 0.84100002 4278190081
-0.1673618 -0.055295747 0.84100002 4278191104
-0.16441269 -0.056770302 0.84100002 4278387459
-0.15998904 -0.056770302 0.84100002 4278191616
-0.070534848 -0.14538816 0.82100004 4278190080
-0.068375617 -0.1461079 0.82100004 4278190080
-0.11751103 -0.055763889 0.81900007 4279901188
-0.1148784 -0.05600322 0.81900007 4281347605
-0.11846835 -0.05384925 0.81900007 4280035086
-0.11559639 -0.05384925 0.81900007 4283322154
-0.072871163 -0.14574233 0.82300001 4278190080
-0.073225334 -0.15515071 0.82700002 4278190080
-0.071050324 -0.15515071 0.82700002 4278190080
-0.068391979 -0.15490904 0.82699996 4278256387
-0.093751617 -0.070495397 0.82900006 4285556319
-0.094236113 -0.066619359 0.82900006 4286082646
-0.092298098 -0.067588374 0.82900006 4284964445
-0.081789494 -0.1234145 0.83300006 4278190080
-0.08377865 -0.12020415 0.83100003 4278190080
-0.08523567 -0.1172901 0.83100003 4278190080
-0.097125024 -0.070105284 0.83300006 4284635734
-0.095664501 -0.070105284 0.83300006 4285292889
-0.095664501 -0.067914493 0.83300006 4285752915
-0.1234145 -0.057690807 0.83300006 4278190080
-0.12633556 -0.056230281 0.83300006 4278190080
-0.12414476 -0.056230281 0.83300006 4278190080
-0.068077549 -0.15738359 0.83500004 4278190338
-0.084913932 -0.12151477 0.83500004 4278190080
-0.087109983 -0.11785469 0.83500004 4278190080
-0.085645951 -0.11931872 0.83500004 4278190080
-0.090038046 -0.1098025 0.83500004 4278190080
-0.088574015 -0.1098025 0.83500004 4278190080
-0.088574015 -0.10760645 0.83500004 4278190080
-0.080172047 -0.12724553 0.83900005 4278190080
-0.082378611 -0.12577449 0.83900005 4278190080
-0.086056225 -0.1228324 0.83900005 4278190080
-0.088296987 -0.11324516 0.83700007 4278190080
-0.13076711 -0.055834025 0.838 4278190080
-0.071515836 -0.16367543 0.84100002 4278190080
-0.072990388 -0.15998904 0.84100002 4278190080
-0.075939491 -0.15703993 0.84100002 4278190080
-0.073337555 -0.17186174 0.84500003 4278190080
-0.071115196 -0.17260252 0.84500003 4278190080
-0.073163971 -0.16406468 0.84300005 4278190080
-0.076300681 -0.15926841 0.84500003 4278190080
-0.073163971 -0.16184756 0.84300005 4278190080
-0.077782251 -0.15704606 0.84500003 4278190080
-0.074996203 -0.16929837 0.84700006 4278190082
-0.074996203 -0.16632822 0.84700006 4278190080
-0.077223815 -0.16038793 0.84700006 4278190080
-0.067143902 -0.19993961 0.85100001 4278190080
-0.070128068 -0.18427271 0.85100001 4278190080
-0.072281167 -0.18182154 0.85000002 4278190080
-0.070045665 -0.18182154 0.85000002 4278190080
-0.067810163 -0.18182154 0.85000002 4278190080
-0.073069729 -0.17894477 0.85050005 4278190080
-0.069769517 -0.17901738 0.84966666 4278190080
-0.075350374 -0.17532018 0.85100001 4278190080
-0.073858291 -0.17532018 0.85100001 4278190080
-0.091017291 -0.17308205 0.85100001 4278190080
-0.075962722 -0.1727774 0.8495 4278190080
-0.07666187 -0.16374379 0.84900004 4278190080
-0.06341368 -0.16338348 0.85100001 4281940531
-0.061175551 -0.16338348 0.85100001 4281942327
-0.058191381 -0.16412953 0.85100001 4282598204
-0.066397853 -0.16114536 0.85100001 4280559898
-0.064084329 -0.16095687 0.85000002 4282005547
-0.061175551 -0.1618914 0.85100001 4281743922
-0.064385906 -0.20738252 0.85400003 4279833108
-0.066631928 -0.20438783 0.85400003 4278190080
-0.064635463 -0.20538604 0.85400003 4278979596
-0.0673806 -0.20289047 0.85400003 4278190080
-0.065134577 -0.20289047 0.85400003 4278190080
-0.072621316 -0.18716833 0.85400003 4278190080
-0.070375293 -0.18716833 0.85400003 4278190080
-0.0673806 -0.18641967 0.85400003 4278190080
-0.0673806 -0.18492231 0.85400003 4278190080
-0.076115124 -0.17793469 0.85400003 4278190080
-0.074118659 -0.17743558 0.85400003 4278190080
-0.090589479 -0.17444089 0.85400003 4278190080
-0.063637234 -0.1654568 0.85400003 4281873204
-0.061141655 -0.16595592 0.85400003 4282729524
-0.066787973 -0.20786819 0.85600007 4278190080
-0.067538396 -0.20561692 0.85600007 4278190080
-0.069789685 -0.2026152 0.85600007 4278190080
-0.070540115 -0.1996135 0.85600007 4278190080
-0.07279139 -0.19285966 0.85600007 4278190080
-0.07279139 -0.19060838 0.85600007 4278190080
-0.070540115 -0.19060838 0.85600007 4278190080
-0.067538396 -0.1883571 0.85600007 4278190080
-0.070869729 -0.2103474 0.86000001 4278190080
-0.067854002 -0.21185526 0.86000001 4278190080
-0.070869729 -0.2080856 0.86000001 4278190092
-0.067946933 -0.20935674 0.85800004 4278190080
-0.065439664 -0.20985821 0.85800004 4279109633
-0.070704922 -0.20534514 0.85800004 4278190080
-0.06844838 -0.2068495 0.85800004 4278190080
-0.073131531 -0.20205413 0.86000001 4278190080
-0.071457095 -0.20308861 0.85800004 4278190080
-0.073131531 -0.19903839 0.86000001 4278190080
-0.071457095 -0.20083207 0.85800004 4278190080
-0.074080087 -0.19612144 0.85933334 4278190080
-0.073713645 -0.19406244 0.85800004 4278190080
-0.068011805 -0.21461502 0.86200005 4278190080
-0.071034551 -0.21234795 0.86200005 4278190080
-0.073301606 -0.20856953 0.86200005 4278190081
-0.073301606 -0.20554678 0.86200005 4278190080
-0.074812979 -0.20252402 0.86200005 4278190080
-0.076324351 -0.19874559 0.86200005 4278190080
-0.074812979 -0.19950128 0.86200005 4278190080
-0.071199358 -0.21435551 0.86400002 4278190080
-0.074229121 -0.21132575 0.86400002 4278190080
-0.074986562 -0.20905343 0.86400002 4278190080
-0.076501437 -0.20526624 0.86400002 4278190080
-0.074986562 -0.20602368 0.86400002 4278190080
-0.076501437 -0.20299391 0.86400002 4278190080
-0.076501437 -0.20072159 0.86400002 4278190080
-0.072373211 -0.22016694 0.86900002 4278190080
-0.070087746 -0.22016694 0.86900002 4278190080
-0.073093392 -0.21775654 0.86849999 4278190080
-0.070179798 -0.21763338 0.86700004 4278190080
-0.075333714 -0.21458784 0.86800003 4278190080
-0.073726796 -0.21433973 0.86700004 4278190080
-0.079229623 -0.2117869 0.86900002 4278190080
-0.076944157 -0.21178688 0.86900002 4278190080
-0.076767065 -0.2082592 0.86700004 4278190080
-0.070249051 -0.22220081 0.87100005 4278190080
-0.07559409 -0.21991009 0.87100005 4278190080
-0.074066937 -0.22067365 0.87100005 4278190080
-0.07559409 -0.21761936 0.87100005 4278190080
-0.078648396 -0.21456504 0.87100005 4278190080
-0.07712125 -0.21456504 0.87100005 4278190080
