# .PCD v0.7 - Point Cloud Data file format
VERSION 0.7
FIELDS x y z rgba
SIZE 4 4 4 4
TYPE F F F U
COUNT 1 1 1 1
WIDTH 1030
HEIGHT 1
VIEWPOINT 0 0 0 1 0 0 0
POINTS 1030
DATA ascii
-0.21682072 -0.1277163 0.84700006 4278190080
-0.21385057 -0.1277163 0.84700006 4278190080
-0.21162295 -0.1277163 0.84700006 4278190080
-0.21162295 -0.1254887 0.84700006 4278190080
-0.17788531 -0.13918222 0.84900004 4278190080
-0.17565244 -0.13918222 0.84900004 4278190080
-0.17267528 -0.13918222 0.84900004 4278190080
-0.1704424 -0.13918222 0.84900004 4278190080
-0.19620939 -0.13503385 0.85100001 4278190080
-0.19374332 -0.13561946 0.85000002 4278190080
-0.19056891 -0.13603429 0.84979999 4278190080
-0.18767111 -0.13702957 0.8495 4278190080
-0.18480134 -0.13710979 0.85000002 4278190080
-0.18182068 -0.13710979 0.85000002 4278190080
-0.17884 -0.13710979 0.85000002 4278190080
-0.17585933 -0.13710979 0.85000002 4278190080
-0.17287867 -0.13710979 0.85000002 4278190080
-0.16989799 -0.13710979 0.85000002 4278190080
-0.16723089 -0.13691516 0.85033339 4278190080
-0.16412953 -0.13652593 0.85100001 4278190080
-0.16095512 -0.13561946 0.85000002 4278190080
-0.15890722 -0.13503385 0.85100001 4278190080
-0.20186098 -0.13333136 0.84966666 4278190080
-0.19990084 -0.13371323 0.8502 4278190080
-0.19723685 -0.1347165 0.84900004 4278190080
-0.15704519 -0.1347165 0.84900004 4278190080
-0.1555566 -0.1347165 0.84900004 4278190080
-0.15144679 -0.13354175 0.85100001 4278190080
-0.14884368 -0.13293977 0.85033339 4278190080
-0.14588085 -0.13322791 0.84900004 4278190080
-0.14290369 -0.13322791 0.84900004 4278190080
-0.13992652 -0.13322791 0.84900004 4278190080
-0.20765692 -0.13025075 0.84900004 4278190080
-0.20566599 -0.12965813 0.85000002 4278190080
-0.20335071 -0.13035186 0.84966666 4278190080
-0.14605267 -0.13114846 0.85000002 4278190080
-0.14290369 -0.13173933 0.84900004 4278190080
-0.21063407 -0.12801787 0.84900004 4278190080
-0.20844802 -0.12769052 0.84979999 4278190080
-0.20590796 -0.1275734 0.85100001 4278190080
-0.22030985 -0.11834212 0.84900004 4278190080
-0.21750332 -0.11843387 0.84966666 4278190080
-0.21460772 -0.11848032 0.84999996 4278190080
-0.22030985 -0.11610924 0.84900004 4278190080
-0.21859069 -0.11563671 0.85100001 4278190080
-0.18941435 -0.13550988 0.85400003 4278190080
-0.18716833 -0.13550988 0.85400003 4278190080
-0.18417364 -0.13550988 0.85400003 4278190080
-0.18117896 -0.13550988 0.85400003 4278190080
-0.17818424 -0.13550988 0.85400003 4278190080
-0.17518955 -0.13550988 0.85400003 4278190080
-0.17219487 -0.13550988 0.85400003 4278190080
-0.16994885 -0.13550988 0.85400003 4278190080
-0.16620547 -0.13550988 0.85400003 4278190080
-0.16321078 -0.13550988 0.85400003 4278190080
-0.19889756 -0.13301431 0.85400003 4278190080
-0.19640197 -0.13351341 0.85400003 4278190080
-0.19315772 -0.13401254 0.85400003 4278190080
-0.19016302 -0.13401254 0.85400003 4278190080
-0.18791701 -0.13401254 0.85400003 4278190080
-0.15347803 -0.13401254 0.85400003 4278190080
-0.151232 -0.13251518 0.85400003 4278190080
-0.20214179 -0.13026917 0.85400003 4278190080
-0.19939665 -0.13051872 0.85400003 4278190080
-0.14898598 -0.13101783 0.85400003 4278190080
-0.14449395 -0.13101783 0.85400003 4278190080
-0.14224795 -0.13101783 0.85400003 4278190080
-0.20738252 -0.12652579 0.85400003 4278190080
-0.20289047 -0.12802315 0.85400003 4278190080
-0.2133719 -0.11829039 0.85400003 4278190080
-0.22010997 -0.11454701 0.85400003 4278190080
-0.21711527 -0.11604437 0.85400003 4278190080
-0.21486925 -0.11604437 0.85400003 4278190080
-0.16884601 -0.13582723 0.85600007 4278190080
-0.19586137 -0.13282552 0.85600007 4278190080
-0.19361009 -0.13282552 0.85600007 4278190080
-0.19060838 -0.13282552 0.85600007 4278190080
-0.18760666 -0.13357595 0.85600007 4278190080
-0.18460497 -0.13432638 0.85600007 4278190080
-0.18160325 -0.13432638 0.85600007 4278190080
-0.17935199 -0.13432638 0.85600007 4278190080
-0.15683918 -0.13432638 0.85600007 4278190080
-0.15483804 -0.1333258 0.85600013 4278190080
-0.19886307 -0.12982382 0.85600007 4278190080
-0.19661179 -0.13132468 0.85600007 4278190080
-0.1515862 -0.13132468 0.85600007 4278190080
-0.14783406 -0.12982382 0.85600007 4278190080
-0.14558277 -0.12982382 0.85600007 4278190080
-0.20236506 -0.12732239 0.85600013 4278190080
-0.19986363 -0.12782268 0.85600013 4278190080
-0.20561692 -0.12457083 0.85600007 4278190080
-0.21762374 -0.11481529 0.85600007 4278190080
-0.2143719 -0.11531556 0.85600013 4278190080
-0.18729283 -0.13313587 0.85800004 4278190080
-0.18503627 -0.13313587 0.85800004 4278190080
-0.18202755 -0.13313587 0.85800004 4278190080
-0.17847355 -0.13404408 0.85900009 4278190080
-0.17470828 -0.13404322 0.85900003 4278190080
-0.1724491 -0.13404322 0.85900009 4278190080
-0.16987343 -0.13424222 0.85866672 4278190080
-0.16660945 -0.13379967 0.85839999 4278190080
-0.16341242 -0.13404322 0.85900003 4278190080
-0.16040021 -0.13404322 0.85900009 4278190080
-0.15795779 -0.13388804 0.85800004 4278190080
-0.19707115 -0.13012715 0.85800004 4278190080
-0.19406244 -0.13087933 0.85800004 4278190080
-0.19077913 -0.13085021 0.85880005 4278190080
-0.18751024 -0.13140795 0.85900009 4278190080
-0.18395972 -0.13193832 0.86000001 4278190080
-0.18169793 -0.13193832 0.86000001 4278190080
-0.16812712 -0.13193832 0.86000001 4278190080
-0.16661926 -0.13193832 0.86000001 4278190080
-0.15681812 -0.1311844 0.86000001 4278190080
-0.15481816 -0.13123116 0.85866672 4278190080
-0.15130448 -0.13022824 0.85866672 4278190080
-0.19932771 -0.12711842 0.85800004 4278190080
-0.19671068 -0.12777942 0.85840005 4278190080
-0.19336846 -0.12825948 0.85960007 4278190080
-0.18999119 -0.1289226 0.86000001 4278190080
-0.14777093 -0.1289226 0.86000001 4278190080
-0.14400128 -0.1289226 0.86000001 4278190080
-0.20233643 -0.12486188 0.85800004 4278190080
-0.19981372 -0.12512873 0.85880005 4278190080
-0.20534514 -0.12110098 0.85800004 4278190080
-0.20282523 -0.12181564 0.85880005 4278190080
-0.2003122 -0.12274824 0.85900003 4278190080
-0.20280805 -0.1198754 0.86000001 4278190080
-0.18060911 -0.13224517 0.86200005 4278190080
-0.17834204 -0.13300085 0.86200005 4278190080
-0.1755712 -0.13274896 0.86200005 4278190080
-0.17229655 -0.13224517 0.86200005 4278190080
-0.17002951 -0.13224517 0.86200005 4278190080
-0.16549538 -0.13224517 0.86200005 4278190080
-0.16322833 -0.13224517 0.86200005 4278190080
-0.16020557 -0.13224517 0.86200005 4278190080
-0.1874103 -0.12997811 0.86200005 4278190080
-0.18438756 -0.13073379 0.86200005 4278190080
-0.18212049 -0.13073379 0.86200005 4278190080
-0.16927382 -0.13073379 0.86200005 4278190080
-0.16625106 -0.13073379 0.86200005 4278190080
-0.16322833 -0.13073379 0.86200005 4278190080
-0.16020557 -0.13073379 0.86200005 4278190080
-0.15743472 -0.12972622 0.86200005 4278190080
-0.15416008 -0.12922242 0.86200005 4278190080
-0.15113734 -0.12922242 0.86200005 4278190080
-0.19647853 -0.12619968 0.86200005 4278190080
-0.19345579 -0.12619968 0.86200005 4278190080
-0.19068496 -0.12720726 0.86200005 4278190080
-0.19874559 -0.12393261 0.86200005 4278190080
-0.19723421 -0.1246883 0.86200005 4278190080
-0.20176834 -0.12015419 0.86200005 4278190080
-0.20025696 -0.12090987 0.86200005 4278190080
-0.2032797 -0.11864281 0.86200005 4278190080
-0.17799839 -0.132552 0.86400002 4278190080
-0.18708767 -0.12952223 0.86400002 4278190080
-0.18481536 -0.12952223 0.86400002 4278190080
-0.18153311 -0.13002719 0.86400002 4278190080
-0.17875583 -0.13103712 0.86400002 4278190080
-0.17572609 -0.13103712 0.86400002 4278190080
-0.17269632 -0.13103712 0.86400002 4278190080
-0.16890912 -0.12952223 0.86400002 4278190080
-0.16663679 -0.12952223 0.86400002 4278190080
-0.16360703 -0.12952223 0.86400002 4278190080
-0.16057727 -0.12952223 0.86400002 4278190080
-0.19011743 -0.12649249 0.86400002 4278190080
-0.18784511 -0.12800737 0.86400002 4278190080
-0.14845824 -0.12800737 0.86400002 4278190080
-0.19668192 -0.12396768 0.86400002 4278190080
-0.19390464 -0.12422016 0.86400002 4278190080
-0.19087487 -0.12422016 0.86400002 4278190080
-0.19920672 -0.1211904 0.86400002 4278190080
-0.1969344 -0.1211904 0.86400002 4278190080
-0.19390464 -0.1211904 0.86400002 4278190080
-0.19163232 -0.12194784 0.86400002 4278190080
-0.20021664 -0.11841312 0.86400002 4278190080
-0.18013659 -0.12997197 0.86700004 4278190080
-0.17785639 -0.12997197 0.86700004 4278190080
-0.1748161 -0.12997197 0.86700004 4278190080
-0.17177582 -0.12997197 0.86700004 4278190080
-0.18925743 -0.12693168 0.86700004 4278190080
-0.18672387 -0.12743841 0.86700004 4278190080
-0.18404257 -0.12776497 0.86750001 4278190080
-0.1811053 -0.12783816 0.86800003 4278190080
-0.17816453 -0.12791225 0.86849999 4278190080
-0.17501773 -0.12783816 0.86800003 4278190080
-0.17216183 -0.12804271 0.86766672 4278190080
-0.16949561 -0.12769176 0.86700004 4278190080
-0.16691224 -0.12765686 0.86780006 4278190080
-0.16360267 -0.12783816 0.86800003 4278190080
-0.1610048 -0.12804271 0.86766672 4278190080
-0.15809456 -0.12769176 0.86700004 4278190080
-0.15441169 -0.12778994 0.86766672 4278190080
-0.15160283 -0.12798631 0.86900002 4278190080
-0.14897372 -0.12693168 0.86700004 4278190080
-0.18925743 -0.12465149 0.86700004 4278190080
-0.18697722 -0.12465149 0.86700004 4278190080
-0.18425474 -0.12486669 0.86849999 4278190080
-0.18156791 -0.12519296 0.86900002 4278190080
-0.15617378 -0.12493902 0.86900002 4278190080
-0.15465012 -0.12493902 0.86900002 4278190080
-0.15007919 -0.1241772 0.86900002 4278190080
-0.14838372 -0.12479438 0.86800003 4278190080
-0.19229771 -0.12085114 0.86700004 4278190080
-0.19023579 -0.12175146 0.86800003 4278190080
-0.18766248 -0.12214568 0.86900002 4278190080
-0.18512307 -0.12265355 0.86900002 4278190080
-0.19888498 -0.11831757 0.86700004 4278190080
-0.19609806 -0.11857092 0.86700004 4278190080
-0.19305778 -0.11857092 0.86700004 4278190080
-0.19034582 -0.11877562 0.86849999 4278190080
-0.19936801 -0.11566301 0.86800003 4278190080
-0.19655041 -0.11655897 0.86900002 4278190080
-0.19426495 -0.11655897 0.86900002 4278190080
-0.17180474 -0.12751731 0.87100005 4278190080
-0.18096767 -0.124463 0.87100005 4278190080
-0.17867693 -0.12522657 0.87100005 4278190080
-0.17562264 -0.12599015 0.87100005 4278190080
-0.17256832 -0.12599015 0.87100005 4278190080
-0.16951403 -0.12599015 0.87100005 4278190080
-0.16645971 -0.12599015 0.87100005 4278190080
-0.1634054 -0.12522657 0.87100005 4278190080
-0.1603511 -0.12522657 0.87100005 4278190080
-0.15806037 -0.12522657 0.87100005 4278190080
-0.15347892 -0.12522657 0.87100005 4278190080
-0.15195176 -0.12522657 0.87100005 4278190080
-0.18707629 -0.12140869 0.87100005 4278190080
-0.18453103 -0.12191775 0.87100005 4278190080
-0.18198578 -0.12242679 0.87100005 4278190080
-0.18783985 -0.11911796 0.87100005 4278190080
-0.18554914 -0.11988154 0.87100005 4278190080
-0.19700278 -0.11530008 0.87100005 4278190080
-0.19369395 -0.11580914 0.87100005 4278190080
-0.1911487 -0.11631817 0.87100005 4278190080
-0.17908722 -0.12321813 0.87300003 4278190080
-0.1760259 -0.12398346 0.87300003 4278190080
-0.17296457 -0.12398347 0.87300003 4278190080
-0.16990325 -0.12398347 0.87300003 4278190080
-0.18444453 -0.12015681 0.87300003 4278190080
-0.18189342 -0.12066703 0.87299997 4278190080
-0.17879073 -0.12087919 0.8738001 4278190080
-0.17527425 -0.12129684 0.87460005 4278190080
-0.18903652 -0.11709549 0.87300003 4278190080
-0.18750586 -0.11709549 0.87300003 4278190080
-0.18520987 -0.11786082 0.87300003 4278190080
-0.18158983 -0.11799554 0.87400007 4278190080
-0.17873043 -0.11889792 0.87500006 4278190080
-0.19592449 -0.11403418 0.87300003 4278190080
-0.193305 -0.11429542 0.87500006 4278190080
-0.19001925 -0.11493012 0.87400007 4278190080
-0.18750586 -0.11556482 0.87300003 4278190080
-0.18472506 -0.11574133 0.87433338 4278190080
-0.18179876 -0.11582959 0.87500006 4278190080
-0.19100375 -0.11276126 0.87500006 4278190080
-0.17831691 -0.11827928 0.87800002 4278190080
-0.18781003 -0.11468729 0.87800002 4278190080
-0.1855009 -0.11468729 0.87800002 4278190080
-0.18088263 -0.11622671 0.87800002 4278190080
-0.19063234 -0.11212157 0.87800002 4278190080
-0.1880666 -0.11263472 0.87800002 4278190080
-0.18438053 -0.11494854 0.88000005 4278190080
-0.18206614 -0.11494854 0.88000005 4278190080
-0.17898026 -0.11649147 0.88000005 4278190080
-0.1874664 -0.11186267 0.88000005 4278190080
-0.18515199 -0.11263413 0.88000005 4278190080
-0.18206614 -0.11340559 0.88000005 4278190080
-0.18016027 -0.11520977 0.88200003 4278190080
-0.17861381 -0.11520977 0.88200003 4278190080
-0.22159593 -0.021007564 0.77300006 4278190080
-0.22237439 -0.02095321 0.77100003 4278190080
-0.23940803 -0.033806898 0.78700006 4278190080
-0.23595835 -0.032427024 0.78700006 4278190080
-0.2416032 -0.036690544 0.78966665 4278190080
-0.24001643 -0.035276189 0.78900003 4278190080
-0.23827274 -0.034368839 0.78933334 4278190080
-0.23532319 -0.03391429 0.7895 4278190080
-0.24504353 -0.040106919 0.79333335 4278190080
-0.24223351 -0.039676182 0.79400003 4278190080
-0.24370632 -0.038187601 0.79200006 4278190080
-0.24113066 -0.037755694 0.79266673 4278190080
-0.23775637 -0.035455029 0.79300004 4278190080
-0.24772847 -0.043265253 0.79600006 4278190080
-0.24423933 -0.041171774 0.79600006 4278190080
-0.24075021 -0.038380466 0.79600006 4278190080
-0.23935455 -0.036984816 0.79600006 4278190080
-0.25388265 -0.051197331 0.80000001 4278190080
-0.25131109 -0.048859552 0.80000001 4278190080
-0.24792132 -0.045937333 0.80000001 4278190080
-0.2466905 -0.04364397 0.79866672 4278190080
-0.24423933 -0.043299615 0.7992 4278190080
-0.24149244 -0.043248888 0.80000001 4278190080
-0.24150544 -0.040951289 0.7985 4278190080
-0.23900433 -0.040301681 0.79949999 4278716424
-0.23839584 -0.037936524 0.79840004 4278190081
-0.26030383 -0.058392137 0.80250001 4278190080
-0.2555387 -0.057021026 0.80300003 4278190080
-0.25606415 -0.055262614 0.80200005 4278190080
-0.25355595 -0.054651987 0.80266666 4278190080
-0.25522044 -0.052731499 0.80200005 4278190080
-0.25287685 -0.052262772 0.80200005 4278190080
-0.25131491 -0.05209329 0.80300003 4278190080
-0.25016823 -0.049471181 0.80233335 4278190080
-0.24792659 -0.049022615 0.80266666 4278190080
-0.2474865 -0.047106806 0.80200005 4278190080
-0.24475022 -0.046418406 0.80225003 4278190080
-0.24162038 -0.046579581 0.80260003 4278585093
-0.23919806 -0.045729127 0.80250001 4279441939
-0.24115874 -0.044294458 0.80200005 4278192128
-0.23868671 -0.043461449 0.80220002 4279639068
-0.23834638 -0.041482113 0.80200005 4280031782
-0.25993899 -0.061867829 0.80500007 4278190080
-0.25946853 -0.059515435 0.80500007 4278190080
-0.25711611 -0.059044961 0.80500007 4278190080
-0.254058 -0.057163049 0.80500007 4278190080
-0.25335228 -0.055751618 0.80500007 4278190080
-0.25194085 -0.054340184 0.80500007 4278190080
-0.25005898 -0.051987797 0.80500007 4278190080
-0.24629514 -0.048694454 0.80500007 4278190080
-0.24488369 -0.048694454 0.80500007 4278190080
-0.23641509 -0.043048717 0.80500007 4280033038
-0.25957572 -0.070213109 0.80900002 4278190080
-0.25744805 -0.070213109 0.80900002 4278190080
-0.25925401 -0.068001278 0.80800009 4278190080
-0.25744805 -0.06808544 0.80900002 4278190080
-0.25822657 -0.065087244 0.80700004 4278190080
-0.25673884 -0.064539321 0.80900002 4278190080
-0.25461116 -0.063830093 0.80900002 4278190080
-0.2586982 -0.062493186 0.80699998 4278190080
-0.25626239 -0.060880557 0.8075 4278190080
-0.25390196 -0.060993209 0.80900002 4278190080
-0.25539669 -0.058720011 0.80700004 4278190080
-0.25324711 -0.058296874 0.80766672 4278190080
-0.25256681 -0.055890128 0.80700004 4278190080
-0.25090945 -0.05528567 0.80850005 4278190080
-0.2489374 -0.055319421 0.80900002 4278190080
-0.24973691 -0.053060248 0.80700004 4278190080
-0.24741638 -0.052461196 0.80866671 4278191104
-0.2476145 -0.050230373 0.80700004 4278190080
-0.24452995 -0.049614511 0.80850005 4278717707
-0.24184516 -0.048936408 0.80900002 4278586901
-0.2404267 -0.047517963 0.80900002 4278916120
-0.23815133 -0.046780244 0.80850005 4279771168
-0.23800361 -0.044625841 0.80800003 4279967773
-0.23517109 -0.043918371 0.80800009 4280427813
-0.26235041 -0.073230594 0.81100005 4278190080
-0.26021749 -0.073230594 0.81100005 4278190080
-0.26235041 -0.071808644 0.81100005 4278190080
-0.25950649 -0.071808644 0.81100005 4278190080
-0.25595158 -0.067542784 0.81100005 4278190080
-0.25381866 -0.063987896 0.81100005 4278190080
-0.25239673 -0.058300085 0.81100005 4278190080
-0.25026378 -0.05758911 0.81100005 4278190080
-0.24813087 -0.05758911 0.81100005 4279045389
-0.24741989 -0.055456176 0.81100005 4278323200
-0.24528696 -0.054745205 0.81100005 4279509259
-0.24481297 -0.052375283 0.81100005 4279180558
-0.24244305 -0.051901296 0.81100005 4279378965
-0.24386498 -0.050479345 0.81100005 4278721555
-0.24173208 -0.049768366 0.81100005 4279180573
-0.23888817 -0.049057391 0.81100005 4280034345
-0.23604426 -0.046924461 0.81100005 4280231464
-0.23343734 -0.046687469 0.81100005 4280297771
-0.2317784 -0.044791531 0.81100005 4280231464
-0.26228464 -0.074836649 0.81300002 4278190080
-0.25943372 -0.074123919 0.81300002 4278190080
-0.25792849 -0.072162814 0.81500006 4278190080
-0.25655505 -0.070142977 0.81366664 4278190080
-0.25367701 -0.066952616 0.81420004 4278190080
-0.25261587 -0.064224601 0.81400001 4278190080
-0.25030735 -0.064065337 0.81500006 4278651403
-0.25301915 -0.061294779 0.81300002 4278190080
-0.2506988 -0.061498336 0.81380004 4278387714
-0.24777274 -0.061051063 0.81450003 4279506190
-0.25088096 -0.059156589 0.81300002 4278190080
-0.24727416 -0.058643918 0.81380004 4279375111
-0.24435329 -0.057873152 0.81500006 4279705885
-0.24220987 -0.057873152 0.81500006 4280231716
-0.24418131 -0.055735487 0.81300002 4279313170
-0.24173355 -0.055491537 0.81500006 4280297765
-0.24375366 -0.053454749 0.81300002 4278986526
-0.24134678 -0.052839771 0.81450003 4279772714
-0.23863745 -0.052157283 0.81500006 4280035375
-0.23577949 -0.052157283 0.81500006 4280297007
-0.24090274 -0.050603829 0.81300002 4279575846
-0.23800886 -0.050170172 0.81366664 4280231464
-0.2354902 -0.049953341 0.81400001 4280297257
-0.23277824 -0.049983591 0.81450003 4280297004
-0.23077813 -0.049299352 0.81500006 4280231966
-0.23230235 -0.047316913 0.81366664 4279706917
-0.23030181 -0.04691774 0.81500006 4280101924
-0.22720569 -0.045726933 0.81500006 4278651661
-0.22949906 -0.044901989 0.81300002 4280035375
-0.22611952 -0.043511014 0.81366664 4278454797
-0.25641271 -0.072339907 0.81700003 4278190080
-0.25569648 -0.07019119 0.81700003 4278190080
-0.25354776 -0.06947495 0.81700003 4278190080
-0.25139907 -0.06947495 0.81700003 4278190346
-0.25283152 -0.068042487 0.81700003 4278190080
-0.25068283 -0.067326248 0.81700003 4278652442
-0.24996661 -0.065177538 0.81700003 4279704866
-0.24853413 -0.064461306 0.81700003 4279966995
-0.24710166 -0.062312588 0.81700003 4279900946
-0.24495295 -0.060880113 0.81700003 4280493083
-0.24280423 -0.060880113 0.81700003 4280625184
-0.24495295 -0.059447646 0.81700003 4280493083
-0.24208799 -0.058731407 0.81700003 4280362529
-0.24137175 -0.056582693 0.81700003 4279970082
-0.23886491 -0.055508342 0.81700003 4280428849
-0.23850679 -0.053717747 0.81700009 4280430388
-0.23468687 -0.053240258 0.81700009 4279904051
-0.23206069 -0.052285276 0.81700003 4279772468
-0.23134445 -0.050852805 0.81700003 4280428838
-0.22991198 -0.050136566 0.81700003 4278190848
-0.22919574 -0.047987856 0.81700003 4278718483
-0.22704703 -0.046555385 0.81700003 4278190080
-0.25071061 -0.073173903 0.82100004 4279575588
-0.25345048 -0.071081012 0.81900007 4278190086
-0.25001264 -0.070406422 0.81950003 4278655260
-0.24783163 -0.070294932 0.82100004 4279444767
-0.24914254 -0.067491062 0.81900007 4279181342
-0.24744049 -0.067615107 0.82050008 4279378468
-0.24543247 -0.066936128 0.82100004 4279970103
-0.24713893 -0.064658985 0.81950003 4279835933
-0.24456327 -0.064737886 0.82050008 4280297264
-0.24627058 -0.062465131 0.81900007 4280098077
-0.2441166 -0.062465131 0.81900007 4280428071
-0.24153921 -0.061823409 0.82000005 4280757546
-0.23967452 -0.061178185 0.82100004 4280626724
-0.24100532 -0.059114512 0.81900007 4281020715
-0.23900008 -0.058731694 0.82033342 4280758573
-0.23679556 -0.058299206 0.82100004 4280101674
-0.23837268 -0.05672121 0.81900007 4280362794
-0.23550074 -0.05600322 0.81900007 4280101163
-0.23334676 -0.05528523 0.81900007 4280035625
-0.23262876 -0.05384925 0.81900007 4279181607
-0.23018257 -0.052454766 0.81966668 4278190080
-0.22903882 -0.049541313 0.81900007 4278190105
-0.22760284 -0.048105333 0.81900007 4278190083
-0.24843533 -0.073352158 0.82300001 4279903771
-0.24651134 -0.07094717 0.82300001 4280365097
-0.24458736 -0.069985174 0.82300001 4280692267
-0.24603036 -0.068542175 0.82300001 4280233774
-0.24458736 -0.067820683 0.82300001 4279839023
-0.24314438 -0.064934701 0.82300001 4280495413
-0.2412204 -0.064694196 0.82300001 4280299062
-0.24025837 -0.062770203 0.82300001 4280692015
-0.23809388 -0.062048711 0.82300001 4280101165
-0.2359294 -0.061327215 0.82300001 4280101168
-0.23809388 -0.05988422 0.82300001 4279905322
-0.2359294 -0.059162725 0.82300001 4280166964
-0.23448642 -0.056998234 0.82300001 4279969582
-0.23304342 -0.055555243 0.82300001 4278916369
-0.22582844 -0.041125309 0.82300001 4278190080
-0.24711041 -0.074012585 0.82500005 4280494632
-0.24489771 -0.073590614 0.82566673 4281414450
-0.24421741 -0.071119584 0.82500005 4281019949
-0.24287611 -0.070325322 0.82700002 4280889167
-0.24373525 -0.067985505 0.82500005 4279905072
-0.24171147 -0.068027146 0.82550007 4280233024
-0.23997609 -0.067425311 0.82700002 4279969330
-0.24084224 -0.065815754 0.82500005 4280036663
-0.23858464 -0.065042876 0.82620001 4279640374
-0.2359183 -0.061574433 0.82633334 4278916640
-0.23461616 -0.057929255 0.82600003 4278654743
-0.23272607 -0.055825256 0.82700002 4278190080
-0.22637725 -0.03977875 0.82500005 4278190080
-0.22330102 -0.039875183 0.82700002 4278190080
-0.220401 -0.039875183 0.82700002 4278190080
-0.22330102 -0.037700176 0.82700002 4278190080
-0.219868 -0.037609 0.82500005 4278190080
-0.20034026 -0.031099752 0.82500005 4278190080
-0.19889376 -0.029653249 0.82500005 4278190080
-0.19696157 -0.028240941 0.82600003 4278190080
-0.19696157 -0.026792686 0.82600003 4278190080
-0.2434635 -0.071948916 0.82900006 4281019974
-0.24128321 -0.070495397 0.82900006 4280297794
-0.23910296 -0.069041885 0.82900006 4279641916
-0.23910296 -0.067588374 0.82900006 4280101173
-0.23619592 -0.063954584 0.82900006 4278190083
-0.23474242 -0.061047561 0.82900006 4278190080
-0.23474242 -0.058867291 0.82900006 4278190080
-0.23183538 -0.053053241 0.82900006 4278190080
-0.23038188 -0.051599726 0.82900006 4278190080
-0.22674808 -0.046512429 0.82900006 4278190080
-0.22602133 -0.043605402 0.82900006 4278190080
-0.22384107 -0.042878643 0.82900006 4278190080
-0.22602133 -0.040698372 0.82900006 4278190080
-0.22384107 -0.041425131 0.82900006 4278190080
-0.22093403 -0.041425131 0.82900006 4278190080
-0.22602133 -0.037791349 0.82900006 4278190085
-0.21439323 -0.038518105 0.82900006 4278190080
-0.2124552 -0.037549097 0.82900006 4278190080
-0.21003267 -0.035611078 0.82900006 4278190080
-0.20857917 -0.034157563 0.82900006 4278190080
-0.19840458 -0.029797023 0.82900006 4278190080
-0.2323947 -0.055366762 0.83100003 4278190080
-0.23093766 -0.055366762 0.83100003 4278190080
-0.22929902 -0.052624024 0.83140004 4278190080
-0.22850931 -0.049781516 0.83100003 4278190080
-0.22662507 -0.049414489 0.833 4278190080
-0.22577588 -0.046905469 0.83166671 4278190080
-0.22419085 -0.046736855 0.83300006 4278190080
-0.22510961 -0.044439111 0.83100003 4278190080
-0.2230389 -0.044024739 0.83233339 4278190080
-0.22042994 -0.043503415 0.83166671 4278190080
-0.21761848 -0.043085538 0.83300006 4278190080
-0.21542768 -0.043085538 0.83300006 4278190080
-0.21928151 -0.04152507 0.83100003 4278190080
-0.21443968 -0.04084653 0.83200002 4278190080
-0.21250664 -0.040164486 0.83300006 4278190080
-0.21119396 -0.038156334 0.83166671 4278190080
-0.20885532 -0.03724343 0.83300006 4278190080
-0.208111 -0.035211317 0.83100003 4278190080
-0.20584805 -0.03475428 0.83166671 4278190080
-0.2032543 -0.03278295 0.83100003 4278190080
-0.19985107 -0.031363629 0.83200002 4278190080
-0.19717109 -0.028480273 0.83300006 4278190080
-0.19498031 -0.027019745 0.83300006 4278190080
-0.19596918 -0.02476934 0.83100003 4278650631
-0.19449347 -0.024585536 0.833 4279505158
-0.23009725 -0.055389266 0.83500004 4278190080
-0.22692516 -0.051973183 0.83500004 4278190080
-0.22619316 -0.050509151 0.83500004 4278190080
-0.22472911 -0.049777135 0.83500004 4278190080
-0.2232651 -0.046849068 0.83500004 4278190080
-0.22180104 -0.046849068 0.83500004 4278190080
-0.22033702 -0.044653017 0.83500004 4278190080
-0.21155283 -0.040260918 0.83500004 4278190080
-0.21008877 -0.038796883 0.83500004 4278190080
-0.20569669 -0.035868816 0.83500004 4278190080
-0.23113754 -0.058701597 0.83700001 4278190080
-0.22994441 -0.058772609 0.83800006 4278190080
-0.22887342 -0.056056112 0.83766669 4278190080
-0.22654119 -0.055164251 0.83900005 4278190080
-0.22820246 -0.053565208 0.83700001 4278190080
-0.22611542 -0.053160191 0.83833337 4278190080
-0.2233317 -0.049955972 0.838 4278190080
-0.22052506 -0.047045875 0.83850002 4278190080
-0.21939722 -0.044759966 0.83700001 4278190080
-0.21550834 -0.043395877 0.83900005 4278190080
-0.2140373 -0.041924831 0.83900005 4278190080
-0.20847805 -0.038462583 0.83833337 4278190080
-0.20594653 -0.03677617 0.83900005 4278190080
-0.20521101 -0.034569599 0.83900005 4278190080
-0.20308888 -0.033562601 0.83833337 4278190080
-0.2003192 -0.033019651 0.83700001 4278190080
-0.19885166 -0.03155211 0.83700001 4278190080
-0.19736542 -0.030646807 0.83900005 4278190080
-0.19665036 -0.02861703 0.83700001 4278190080
-0.19344264 -0.027949886 0.83900005 4278190080
-0.1919716 -0.027949886 0.83900005 4278190080
-0.22708121 -0.056770302 0.84100002 4278190080
-0.22486937 -0.056033023 0.84100002 4278190080
-0.22437786 -0.052838162 0.84100002 4278190080
-0.22142875 -0.049889058 0.84100002 4278190080
-0.21897116 -0.047185704 0.84100002 4278190080
-0.21897116 -0.044973876 0.84100002 4278190080
-0.21307296 -0.042024769 0.84100002 4278190080
-0.21086112 -0.040550217 0.84100002 4278190080
-0.20791201 -0.039812937 0.84100002 4278190080
-0.20496291 -0.036863834 0.84100002 4278190080
-0.20275109 -0.036126554 0.84100002 4278190080
-0.20201381 -0.034652002 0.84100002 4278190080
-0.19980198 -0.03317745 0.84100002 4278190080
-0.1961156 -0.030965619 0.84100002 4278190080
-0.19316649 -0.030228341 0.84100002 4278190080
-0.19537832 -0.028016511 0.84100002 4278190080
-0.22346963 -0.058028027 0.84500003 4278190080
-0.22343342 -0.055919934 0.84300011 4278190080
-0.22149421 -0.054817967 0.84500003 4278190080
-0.22294073 -0.053456504 0.84300011 4278190080
-0.2205065 -0.052101761 0.84500003 4278190080
-0.21853109 -0.051114049 0.84500003 4278190080
-0.22023094 -0.050254039 0.84300005 4278190080
-0.21786481 -0.048606783 0.84433335 4278190080
-0.21753168 -0.045874212 0.84400004 4278190080
-0.21457204 -0.043654494 0.84400004 4278190080
-0.2116133 -0.042915463 0.84400004 4278190080
-0.20914783 -0.042718504 0.84500003 4278190080
-0.20667854 -0.042224649 0.84500003 4278190080
-0.20816012 -0.040743083 0.84500003 4278190080
-0.20569405 -0.03995584 0.84400004 4278190080
-0.20322156 -0.03975537 0.84500003 4278190080
-0.20471132 -0.037690531 0.84300005 4278190080
-0.20224787 -0.037197843 0.84300011 4278190080
-0.19977392 -0.036255427 0.84400004 4278190080
-0.19778915 -0.036298383 0.84500003 4278190080
-0.19944899 -0.034269195 0.84366673 4278190080
-0.19693133 -0.03405631 0.84450006 4278190080
-0.19584295 -0.031778291 0.84300005 4278190080
-0.22424608 -0.060888007 0.84700006 4278190080
-0.22201847 -0.057917859 0.84700006 4278190080
-0.2205334 -0.057175323 0.84700006 4278190080
-0.22003837 -0.054700207 0.84700006 4278190080
-0.21904832 -0.052720107 0.84700006 4278190080
-0.21706824 -0.051730055 0.84700006 4278190080
-0.21657319 -0.049254935 0.84700006 4278190080
-0.2145931 -0.049007423 0.84700006 4278190080
-0.21607818 -0.046037275 0.84700006 4278190080
-0.21385056 -0.046037275 0.84700006 4278190080
-0.21088043 -0.046037272 0.84700006 4278190080
-0.20791027 -0.043809664 0.84700006 4278190080
-0.20518763 -0.042819615 0.84700006 4278190080
-0.20271252 -0.042324591 0.84700006 4278190080
-0.20172246 -0.040344492 0.84700006 4278190080
-0.20122744 -0.037869371 0.84700006 4278190080
-0.19974238 -0.037869371 0.84700006 4278190080
-0.19602969 -0.036384296 0.84700006 4278190080
-0.22254272 -0.061031781 0.84900004 4278190080
-0.22157487 -0.060429506 0.85100001 4278190080
-0.22023416 -0.058348883 0.84966666 4278190080
-0.21859069 -0.057445336 0.85100001 4278190080
-0.21956556 -0.05582175 0.84900004 4278190080
-0.21746023 -0.055110332 0.8495 4278190080
-0.21560653 -0.054461163 0.85100001 4278190080
-0.21658839 -0.052844591 0.84900004 4278190080
-0.21448132 -0.052131422 0.8495 4278190080
-0.2118763 -0.05222303 0.85100001 4278190080
-0.20963816 -0.051476989 0.85100001 4278190080
-0.21361123 -0.049123138 0.84900004 4278190080
-0.21137837 -0.049123138 0.84900004 4278190080
-0.20864667 -0.049181875 0.85000002 4278190080
-0.206654 -0.048492815 0.85100001 4278190080
-0.2084012 -0.046145979 0.84900004 4278190080
-0.20566511 -0.046200335 0.85000002 4278190080
-0.20366982 -0.045508642 0.85100001 4278190080
-0.20467974 -0.043913111 0.84900004 4278190080
-0.20219879 -0.043416917 0.84900004 4278190080
-0.20021401 -0.04242453 0.84900004 4278190080
-0.19946972 -0.040191662 0.84900004 4278190080
-0.19720411 -0.040037658 0.85100001 4278190080
-0.1947173 -0.039540295 0.85100001 4278190080
-0.19872543 -0.037958793 0.84900004 4278190080
-0.19672312 -0.038003501 0.85000002 4278190080
-0.19391602 -0.036996208 0.84966666 4278190080
-0.19076177 -0.036513165 0.85000002 4278190080
-0.22235599 -0.062139887 0.85400003 4278190080
-0.22085863 -0.06064254 0.85400003 4278190080
-0.21936129 -0.059145194 0.85400003 4278190080
-0.21711527 -0.057647847 0.85400003 4278190080
-0.2163666 -0.0561505 0.85400003 4278190080
-0.21437013 -0.055152267 0.85400003 4278190080
-0.21187454 -0.054653153 0.85400003 4278190080
-0.21037722 -0.053155806 0.85400003 4278190080
-0.20887986 -0.051658459 0.85400003 4278190080
-0.20738252 -0.050161112 0.85400003 4278190080
-0.20588516 -0.048663765 0.85400003 4278190080
-0.20438783 -0.047166418 0.85400003 4278190080
-0.20239134 -0.046168189 0.85400003 4278190080
-0.20139313 -0.044171724 0.85400003 4278190080
-0.19939665 -0.043173492 0.85400003 4278190080
-0.19615242 -0.041177034 0.85400003 4278190080
-0.19315772 -0.039679687 0.85400003 4278190080
-0.19315772 -0.038182341 0.85400003 4278190080
-0.1909117 -0.038182341 0.85400003 4278190080
-0.22062545 -0.06153499 0.85600007 4278190080
-0.21837418 -0.060784563 0.85600007 4278190080
-0.21762374 -0.059283711 0.85600007 4278190080
-0.21537246 -0.057782855 0.85600007 4278190080
-0.21387161 -0.056282002 0.85600007 4278190080
-0.21162033 -0.055531576 0.85600007 4278190080
-0.20936905 -0.05478115 0.85600007 4278190080
-0.20861861 -0.052529868 0.85600007 4278190080
-0.20561692 -0.049528159 0.85600007 4278190080
-0.20336562 -0.048777733 0.85600007 4278190080
-0.19886307 -0.044275176 0.85600007 4278190080
-0.19736223 -0.04277432 0.85600007 4278190080
-0.19436051 -0.041273467 0.85600007 4278190080
-0.1913588 -0.039772615 0.85600007 4278190080
-0.18985796 -0.037521333 0.85600007 4278190080
-0.21487099 -0.06483826 0.86000001 4278190080
-0.22038874 -0.062430941 0.85800004 4278190080
-0.21750581 -0.062091231 0.85850006 4278190080
-0.21462028 -0.06137456 0.85900009 4278190080
-0.21449535 -0.059080757 0.8585 4278190080
-0.21160805 -0.058362331 0.85900009 4278190080
-0.21136257 -0.056413502 0.85800004 4278190080
-0.20859581 -0.055726193 0.85900003 4278190080
-0.20784277 -0.053467024 0.85900003 4278190080
-0.20558359 -0.052337877 0.85900009 4278190080
-0.20280805 -0.052021399 0.86000001 4278190080
-0.20534514 -0.050396062 0.85800004 4278190080
-0.20257136 -0.049701735 0.85900009 4278190080
-0.20181832 -0.04744257 0.85900003 4278190080
-0.2003122 -0.045936454 0.85900003 4278190080
-0.19682042 -0.043877169 0.85800004 4278190080
-0.19428775 -0.042924233 0.85900003 4278190080
-0.19331026 -0.0413699 0.85800004 4278190080
-0.19044822 -0.040397968 0.85866672 4278190080
-0.18758272 -0.037667442 0.85933334 4278190080
-0.18879719 -0.035352457 0.85800004 4278190080
-0.18578847 -0.035352457 0.85800004 4278190080
-0.21385933 -0.06423337 0.86200005 4278190080
-0.21385933 -0.062721997 0.86200005 4278190080
-0.21184416 -0.061714411 0.86200005 4278190080
-0.21083659 -0.059699252 0.86200005 4278190080
-0.20932521 -0.058943562 0.86200005 4278190080
-0.20781384 -0.0566765 0.86200005 4278190080
-0.20554678 -0.055165127 0.86200005 4278190080
-0.2047911 -0.053653754 0.86200005 4278190080
-0.20227213 -0.053149965 0.86200005 4278190080
-0.20025696 -0.052142382 0.86200005 4278190080
-0.20176834 -0.050631005 0.86200005 4278190080
-0.20025696 -0.049875319 0.86200005 4278190080
-0.19950128 -0.046852574 0.86200005 4278190080
-0.19723421 -0.046096887 0.86200005 4278190080
-0.19572285 -0.044585511 0.86200005 4278190080
-0.19043306 -0.04156277 0.86200005 4278190080
-0.21208319 -0.065139838 0.86400002 4278190080
-0.20981087 -0.064382397 0.86400002 4278190080
-0.21132575 -0.062867522 0.86400002 4278190080
-0.20930593 -0.0618576 0.86400002 4278190080
-0.208296 -0.059080318 0.86400002 4278190080
-0.20678112 -0.058322877 0.86400002 4278190080
-0.20602368 -0.056807999 0.86400002 4278190080
-0.2032464 -0.055798084 0.86400002 4278190080
-0.19996417 -0.053020798 0.86400002 4278190080
-0.19920672 -0.049991038 0.86400002 4278190080
-0.19769184 -0.049233597 0.86400002 4278190080
-0.19920672 -0.047718722 0.86400002 4278190080
-0.1969344 -0.046961281 0.86400002 4278190080
-0.19365215 -0.044183999 0.86400002 4278190080
-0.2110461 -0.067139514 0.86700004 4278190080
-0.20926034 -0.066964179 0.86800003 4278190080
-0.20849851 -0.063919514 0.86800003 4278190080
-0.20749912 -0.0608056 0.86700004 4278190080
-0.2054556 -0.060876608 0.86800003 4278190080
-0.20340683 -0.060184043 0.86900002 4278190080
-0.20521891 -0.058525391 0.86700004 4278190080
-0.20229477 -0.057799071 0.86750007 4278190080
-0.19985163 -0.057644635 0.86900002 4278190080
-0.20141855 -0.055485111 0.86700004 4278190080
-0.19913834 -0.055485111 0.86700004 4278190080
-0.19888498 -0.053458255 0.86700004 4278190080
-0.19609806 -0.052444831 0.86700004 4278190080
-0.19426495 -0.051042162 0.86900002 4278190080
-0.19837828 -0.050924692 0.86700004 4278190080
-0.19609806 -0.050164621 0.86700004 4278190080
-0.19327958 -0.049461532 0.86800003 4278190080
-0.19584471 -0.047377694 0.86700004 4278190080
-0.19316867 -0.047151957 0.86750001 4278190080
-0.19045582 -0.046471223 0.86900002 4278190080
-0.18817036 -0.046471223 0.86900002 4278190080
-0.19229771 -0.044084061 0.86700004 4278190080
-0.19001751 -0.044084061 0.86700004 4278190080
-0.18719201 -0.044134907 0.86800003 4278190080
-0.18925743 -0.041043781 0.86700004 4278190080
-0.18737377 -0.041329283 0.86766672 4278190080
-0.20845644 -0.067194745 0.87100005 4278190080
-0.2061657 -0.064140439 0.87100005 4278190080
-0.20387496 -0.063376866 0.87100005 4278190080
-0.2031114 -0.061086133 0.87100005 4278190080
-0.20082067 -0.06032256 0.87100005 4278190080
-0.19929351 -0.058795404 0.87100005 4278190080
-0.19725733 -0.054722995 0.87100005 4278190080
-0.19471206 -0.052686792 0.87100005 4278190080
-0.19089417 -0.048105333 0.87100005 4278190080
-0.20740443 -0.067349032 0.87300003 4278190080
-0.20510843 -0.067349032 0.87300003 4278190080
-0.20251 -0.067503333 0.87500006 4278190080
-0.20020875 -0.066736251 0.87500006 4278190080
-0.20434311 -0.065053046 0.87300003 4278190080
-0.2021624 -0.064324975 0.87350011 4278190080
-0.19969738 -0.064179309 0.87500006 4278190080
-0.20204712 -0.061991733 0.87300003 4278190080
-0.19932726 -0.061332043 0.87450004 4278190080
-0.19662905 -0.061110973 0.87500006 4278190080
-0.19822048 -0.058165077 0.87300003 4278190080
-0.19626069 -0.058265459 0.87450004 4278190080
-0.19407208 -0.057531253 0.87500006 4278190080
-0.19566937 -0.055358868 0.87299997 4278190080
-0.193305 -0.055229999 0.87500006 4278190080
-0.1930832 -0.052102052 0.87400007 4278190080
-0.19209783 -0.04974645 0.87300003 4278190080
-0.18969111 -0.049274221 0.87366676 4278190080
-0.20346087 -0.070557058 0.87800002 4278190080
-0.20012546 -0.06773477 0.87800002 4278190080
-0.19781633 -0.066965058 0.87800002 4278190080
-0.19935575 -0.065425634 0.87800002 4278190080
-0.19730318 -0.064399339 0.87800002 4278190080
-0.19627689 -0.062346783 0.87800002 4278190080
-0.1990384 -0.068660535 0.88000005 4278190080
-0.25970376 -0.064925939 0.80500007 4278190080
-0.26524952 -0.073759228 0.80900002 4278190080
-0.26312184 -0.073759228 0.80900002 4278190080
-0.26288372 -0.070640221 0.80740005 4278190080
-0.26247135 -0.067917116 0.8070001 4278190080
-0.26590526 -0.082473293 0.81100005 4278190080
-0.26377234 -0.082473293 0.81100005 4278190080
-0.26590526 -0.079629391 0.81100005 4278190080
-0.26329836 -0.079392396 0.81100005 4278190080
-0.26092845 -0.078918412 0.81100005 4278190080
-0.26590526 -0.076785482 0.81100005 4278190080
-0.26329836 -0.077022471 0.81100005 4278190080
-0.26092845 -0.077496454 0.81100005 4278190080
-0.26007193 -0.1028856 0.81500006 4278190080
-0.26546168 -0.08563368 0.81400001 4278190080
-0.26292986 -0.085738003 0.81500006 4278190080
-0.26078641 -0.085023522 0.81500006 4278190080
-0.26260638 -0.082778379 0.81400001 4278190080
-0.26031008 -0.082641907 0.81500006 4278190080
-0.26228464 -0.080538489 0.81300002 4278190080
-0.26007193 -0.080022134 0.81500006 4278190080
-0.26228464 -0.076262109 0.81300002 4278190080
-0.25967306 -0.076659769 0.81420004 4278190080
-0.25927767 -0.11244916 0.81699997 4278190080
-0.25712895 -0.11173292 0.81700003 4278190080
-0.25927767 -0.10886797 0.81700003 4278190080
-0.25712895 -0.10886797 0.81700003 4278190080
-0.25951642 -0.10576429 0.81700009 4278190080
-0.26214263 -0.10027313 0.81700003 4278190080
-0.25999391 -0.10098937 0.81700003 4278190080
-0.26238137 -0.097646929 0.81700009 4278190080
-0.26285887 -0.094543234 0.81700003 4278190080
-0.26285887 -0.091678292 0.81700003 4278190080
-0.26214263 -0.08881335 0.81700003 4278190080
-0.25999391 -0.08809711 0.81700003 4278190080
-0.26142639 -0.086664632 0.81700003 4278190080
-0.25927767 -0.085948393 0.81700003 4278190080
-0.25903893 -0.083322197 0.81700009 4278190080
-0.25856143 -0.080218509 0.81700003 4278190080
-0.25856143 -0.075921088 0.81700003 4278190080
-0.25856143 -0.073772371 0.81700003 4278190080
-0.25622866 -0.12451559 0.82100004 4278190080
-0.25622863 -0.12091688 0.82100004 4278190080
-0.25721839 -0.11770273 0.82033342 4278190080
-0.25991237 -0.11559639 0.81900007 4278190080
-0.2568593 -0.11484702 0.81980008 4278190080
-0.25632244 -0.11200644 0.81900007 4278190080
-0.25411803 -0.11178333 0.82000005 4278190080
-0.25632244 -0.10913448 0.81900007 4278190080
-0.25411803 -0.1096276 0.82000005 4278190080
-0.2591944 -0.10698052 0.81900007 4278190080
-0.25652993 -0.10634903 0.81966668 4278190080
-0.26206636 -0.096928656 0.81900007 4278190080
-0.25991237 -0.097646654 0.81900007 4278190080
-0.26206636 -0.094774686 0.81900007 4278190080
-0.25973409 -0.094723657 0.81980002 4278190080
-0.26206636 -0.091902725 0.81900007 4278190080
-0.25973406 -0.092136092 0.81980002 4278190080
-0.25935176 -0.089444555 0.81950003 4278190080
-0.25673857 -0.087976716 0.82033342 4278190080
-0.25704041 -0.085440814 0.81900007 4278190080
-0.25488645 -0.084722824 0.81900007 4278190080
-0.25704044 -0.081850864 0.81900007 4278190080
-0.25461408 -0.081677571 0.81966668 4278190080
-0.2591944 -0.078260913 0.81900007 4278190080
-0.25673413 -0.07887353 0.81940001 4278190080
-0.25434175 -0.079346806 0.82033342 4278190080
-0.25704044 -0.076106943 0.81900007 4278190080
-0.2538619 -0.076230846 0.82033342 4278321922
-0.25119042 -0.075573049 0.82100004 4280166180
-0.25704044 -0.073952973 0.81900007 4278190080
-0.25365618 -0.073295176 0.8196668 4278190338
-0.25396681 -0.12409742 0.82300001 4278190080
-0.25396681 -0.12121144 0.82300001 4278190080
-0.25613132 -0.11832544 0.82300001 4278190080
-0.25468832 -0.11904694 0.82300001 4278190080
-0.25613132 -0.11616097 0.82300001 4278190080
-0.25396681 -0.11471796 0.82300001 4278190080
-0.25396681 -0.11327497 0.82300001 4278190080
-0.25132132 -0.11231297 0.82300001 4280822569
-0.25396681 -0.108946 0.82300001 4278190080
-0.25132132 -0.10990799 0.82300001 4280493860
-0.25901729 -0.095959052 0.82300001 4278190080
-0.25685281 -0.094516061 0.82300001 4278190080
-0.25901729 -0.091630079 0.82300001 4278190080
-0.25685281 -0.09090858 0.82300001 4278190080
-0.25613132 -0.088744089 0.82300001 4278190080
-0.25468832 -0.08730109 0.82300001 4278190080
-0.25396684 -0.085136607 0.82300001 4278782471
-0.25372633 -0.082491122 0.82300001 4278717194
-0.25180233 -0.082250617 0.82300001 4279441174
-0.25324532 -0.079364628 0.82300001 4278190082
-0.25180233 -0.079364628 0.82300001 4279507489
-0.25084031 -0.076719142 0.82300001 4279967767
-0.25035933 -0.074314155 0.82300001 4280100630
-0.25241426 -0.12150601 0.82500005 4279835672
-0.25024453 -0.12150601 0.82500005 4281220946
-0.25530726 -0.11788975 0.82500005 4278190080
-0.2531375 -0.118613 0.82500005 4279308817
-0.25039575 -0.11868445 0.82550007 4282206786
-0.24795115 -0.11890054 0.82700002 4282929475
-0.25530726 -0.11644325 0.82500005 4278190080
-0.25289643 -0.11596108 0.82500005 4279901212
-0.25039575 -0.11579057 0.82550007 4282009920
-0.24770947 -0.11575887 0.82699996 4282208581
-0.25000343 -0.11306808 0.82500005 4282073656
-0.24867614 -0.11310051 0.82700002 4281419067
-0.25000343 -0.10969292 0.82500005 4280627253
-0.24795114 -0.1094755 0.82700008 4281154870
-0.25530726 -0.096915498 0.82500005 4278190080
-0.25530726 -0.094022498 0.82500005 4278190080
-0.2531375 -0.094022498 0.82500005 4279768859
-0.25096777 -0.093299247 0.82500005 4280166173
-0.25530726 -0.091129504 0.82500005 4278190080
-0.2531375 -0.091129504 0.82500005 4280032287
-0.25054696 -0.091239959 0.82600003 4279969571
-0.25530726 -0.088959754 0.82500005 4278190080
-0.2531375 -0.088236511 0.82500005 4279768862
-0.25069907 -0.088397369 0.82650006 4279773475
-0.25241426 -0.085343502 0.82500005 4279506192
-0.25039575 -0.085395664 0.82550001 4279312938
-0.24867614 -0.08555039 0.82700002 4280364590
-0.25024453 -0.082450502 0.82500005 4279115552
-0.24867614 -0.082650378 0.82700002 4279772460
-0.25024453 -0.079557501 0.82500005 4279509276
-0.2481928 -0.079508699 0.82699996 4280363564
-0.24952127 -0.0766645 0.82500005 4280231448
-0.24765044 -0.076757424 0.82600009 4281216045
-0.24577612 -0.076850355 0.82700002 4280954160
-0.24927753 -0.11700783 0.82900006 4281747778
-0.25509161 -0.096658632 0.82900006 4278389519
-0.25291133 -0.097385392 0.82900006 4280297763
-0.25218457 -0.095205128 0.82900006 4280297759
-0.25073105 -0.093751617 0.82900006 4280231966
-0.24927753 -0.090844586 0.82900006 4280233261
-0.24927753 -0.088664316 0.82900006 4280101422
-0.24782403 -0.085757285 0.82900006 4280628019
-0.24782403 -0.082850263 0.82900006 4280627769
-0.24685502 -0.080185495 0.82900006 4280759865
-0.24491701 -0.07921648 0.82900006 4280693562
-0.24443249 -0.076793954 0.82900006 4280757041
-0.243948 -0.074371435 0.82900006 4280823347
-0.24987894 -0.099805869 0.83100003 4280036909
-0.25060743 -0.097620338 0.83100003 4280429345
-0.24769339 -0.097620338 0.83100003 4280760117
-0.24469396 -0.097615257 0.83220005 4280694583
-0.2503646 -0.094949149 0.83100003 4280495148
-0.24769339 -0.094706312 0.83100003 4280956733
-0.24434336 -0.094820566 0.83200008 4280694585
-0.24987894 -0.092520766 0.83100003 4280233261
-0.24769339 -0.091792256 0.83100003 4281220413
-0.24424545 -0.091865897 0.83166671 4280628022
-0.24769339 -0.088878229 0.83100003 4281219905
-0.24444126 -0.089020826 0.83233339 4280825146
-0.24696489 -0.085964173 0.83100003 4280823867
-0.24444126 -0.086102106 0.83233339 4280561206
-0.24696489 -0.083050139 0.83100003 4281548599
-0.24424545 -0.08311677 0.83166671 4280561455
-0.24135205 -0.082154624 0.83300006 4279967779
-0.24453652 -0.080378935 0.83100003 4279970605
-0.24136755 -0.079483338 0.8318001 4279441953
-0.24405085 -0.077950567 0.83100003 4280364597
-0.24186532 -0.076493554 0.83100003 4280429112
-0.23923796 -0.075856216 0.83200008 4278322705
-0.24162249 -0.073093839 0.83100003 4279968315
-0.23923796 -0.072938666 0.83200002 4278520345
-0.23909068 -0.070292011 0.83233339 4278717463
-0.23777917 -0.067103572 0.83200008 4278454297
-0.24376155 -0.098822251 0.83500004 4281285949
-0.24229752 -0.098090231 0.83500004 4280889161
-0.24229752 -0.095162168 0.83500004 4280035129
-0.24156551 -0.091502078 0.83500004 4279440667
-0.2415655 -0.087842003 0.83500004 4279835164
-0.2415655 -0.084913932 0.83500004 4279572507
-0.24083349 -0.082717881 0.83500004 4278190080
-0.23936945 -0.081985861 0.83500004 4278190080
-0.23936945 -0.079057798 0.83500004 4278190080
-0.23790541 -0.075397715 0.83500004 4278190080
-0.23790541 -0.073201664 0.83500004 4278190080
-0.23644139 -0.073201664 0.83500004 4278190080
-0.23790541 -0.069541581 0.83500004 4278190080
-0.23644139 -0.069541581 0.83500004 4278190080
-0.23866403 -0.088122524 0.83766669 4278190080
-0.24141033 -0.085851088 0.83700001 4278190082
-0.23899598 -0.085051917 0.83780003 4278190080
-0.23802462 -0.082280427 0.83800006 4278190080
-0.23788305 -0.079294935 0.83750004 4278190080
-0.2374969 -0.076556675 0.83700007 4278190080
-0.23774147 -0.071175687 0.83700001 4278190080
-0.23522677 -0.070568591 0.83850002 4278190080
-0.23508605 -0.067587495 0.83800006 4278190080
-0.2331609 -0.066932626 0.83900005 4278190080
-0.23407261 -0.065305531 0.83700001 4278190080
-0.23242538 -0.064726055 0.83900005 4278190080
-0.23214746 -0.061710317 0.838 4278190080
-0.23371671 -0.073727667 0.84100002 4278190080
-0.23297943 -0.070778564 0.84100002 4278190080
-0.23273367 -0.06807521 0.84100002 4278190080
-0.23076759 -0.067829452 0.84100002 4278190080
-0.23076759 -0.064880341 0.84100002 4278190080
-0.23027606 -0.061685484 0.84100002 4278190080
-0.22929303 -0.058982134 0.84100002 4278190080
-0.22781849 -0.058982134 0.84100002 4278190080
-0.23581605 -0.098030329 0.84500003 4278190080
-0.2363099 -0.094820261 0.84500003 4278190080
-0.23575059 -0.09163972 0.84300005 4278190080
-0.23528945 -0.088788807 0.84399998 4278190080
-0.23279445 -0.073903002 0.84300005 4278190080
-0.23131639 -0.07094688 0.84300005 4278190080
-0.229708 -0.070812754 0.84433335 4278190080
-0.22937019 -0.06807141 0.84400004 4278190080
-0.22742048 -0.067411281 0.84500003 4278190080
-0.2290993 -0.065034643 0.84300005 4278190080
-0.22641057 -0.065111786 0.84400004 4278190080
-0.22885297 -0.062324863 0.84300011 4278190080
-0.22627687 -0.062115781 0.84350008 4278190080
-0.22614318 -0.059122406 0.84300005 4278190080
-0.23315653 -0.10024245 0.84700006 4278190080
-0.23538414 -0.097272307 0.84700006 4278190080
-0.23315653 -0.098014846 0.84700006 4278190080
-0.23538414 -0.095044702 0.84700006 4278190080
-0.23315653 -0.095044695 0.84700006 4278190080
-0.23018637 -0.095044702 0.84700006 4278190080
-0.23538414 -0.092074543 0.84700006 4278190080
-0.23315652 -0.092074543 0.84700006 4278190080
-0.23092891 -0.092074543 0.84700006 4278190080
-0.23315653 -0.089104407 0.84700006 4278190080
-0.23092891 -0.089104399 0.84700006 4278190080
-0.23315653 -0.086134255 0.84700006 4278190080
-0.23241399 -0.077223815 0.84700006 4278190080
-0.23241399 -0.074253663 0.84700006 4278190080
-0.23018637 -0.072768599 0.84700006 4278190080
-0.22746374 -0.069550931 0.84700006 4278190080
-0.22647369 -0.067570835 0.84700006 4278190080
-0.22498862 -0.063858151 0.84700006 4278190080
-0.22899322 -0.093532443 0.84900004 4278190080
-0.22924131 -0.090803377 0.84900004 4278190080
-0.23147418 -0.087081932 0.84900004 4278190080
-0.22924131 -0.087826222 0.84900004 4278190080
-0.22978133 -0.082064763 0.85100001 4278190080
-0.22754321 -0.082810804 0.85100001 4278190080
-0.23147418 -0.078894734 0.84900004 4278190080
-0.22951046 -0.078987665 0.85000002 4278190080
-0.22754321 -0.079080589 0.85100001 4278190080
-0.23147418 -0.075917579 0.84900004 4278190080
-0.22951046 -0.076006994 0.85000002 4278190080
-0.22704585 -0.075847737 0.85100001 4278190080
-0.22899322 -0.073188521 0.84900004 4278190080
-0.22666347 -0.073069729 0.85050005 4278190080
