# .PCD v0.7 - Point Cloud Data file format
VERSION 0.7
FIELDS x y z rgba
SIZE 4 4 4 4
TYPE F F F U
COUNT 1 1 1 1
WIDTH 994
HEIGHT 1
VIEWPOINT 0 0 0 1 0 0 0
POINTS 994
DATA ascii
0.047244739 0.24530129 0.70600003 4278190080
0.048895206 0.24509497 0.70600003 4278190080
0.047038428 0.24695173 0.70600003 4278190080
0.048895206 0.24695173 0.70600003 4278190080
0.041526821 0.25102037 0.70700002 4278190080
0.042766429 0.25102037 0.70700002 4278190080
0.041526821 0.25225994 0.70700002 4278190080
0.043386236 0.25225994 0.70700002 4278190080
0.0317441 0.23963682 0.71000004 4278190080
0.026764635 0.24150413 0.71000004 4278190080
0.028631935 0.24150413 0.71000004 4278190080
0.031744096 0.24150415 0.71000004 4278190080
0.026764637 0.24461631 0.71000004 4278190080
0.041703034 0.24586117 0.71000004 4278190080
0.0429479 0.24586117 0.71000004 4278190080
0.040458169 0.24772848 0.71000004 4278190080
0.043669928 0.24796131 0.70960003 4278190080
0.045394968 0.24811654 0.70933336 4278190080
0.040438589 0.25010043 0.70966673 4278190080
0.043477844 0.2503098 0.70849997 4278190080
0.04635603 0.25016698 0.70879996 4278190080
0.043570332 0.25457522 0.71000004 4278190080
0.029377976 0.23689902 0.71300006 4278190080
0.031253166 0.23689902 0.71300006 4278190080
0.023127345 0.23939925 0.71300006 4278190080
0.025579087 0.23957489 0.71166664 4278190080
0.028685408 0.23883907 0.71133333 4278190080
0.031165499 0.23810443 0.71100003 4278190080
0.022798594 0.24172901 0.71250004 4278190080
0.024932399 0.24184427 0.71100003 4278190080
0.020627091 0.24439977 0.71300006 4278190080
0.022351319 0.24437487 0.71220005 4278190080
0.024932399 0.24433751 0.71100003 4278190080
0.040578078 0.24409389 0.71211123 4278190080
0.043693945 0.24468118 0.71200007 4278190080
0.046254687 0.24564989 0.71300006 4278190080
0.038021911 0.24620745 0.71100003 4278190080
0.039891839 0.24620745 0.71100003 4278190080
0.044255011 0.24620745 0.71100003 4278190080
0.046124939 0.24620745 0.71100003 4278190080
0.026049275 0.23632653 0.71600002 4278190080
0.02885329 0.23584743 0.7155 4278190080
0.031340834 0.23568219 0.71500003 4278190080
0.020086186 0.23915116 0.71600002 4278190080
0.0225654 0.23881628 0.71500003 4278190080
0.025686918 0.23807871 0.71466666 4278190080
0.0281673 0.23723127 0.71400005 4278190080
0.04205545 0.23852347 0.71600002 4278190080
0.019608183 0.24173403 0.71575004 4278190080
0.021907901 0.2409869 0.71400005 4278190080
0.04205545 0.24040653 0.71600002 4278190080
0.019422257 0.2449699 0.71466666 4278190080
0.043878041 0.24383169 0.71500003 4278190080
0.046153575 0.2445526 0.71466666 4278190080
0.034667782 0.2212435 0.71900004 4278190080
0.029625198 0.22376478 0.71900004 4278190080
0.031696469 0.22397636 0.71833342 4278190080
0.02852213 0.22644365 0.71899998 4278190080
0.03135433 0.22628573 0.71820009 4278190080
0.025324622 0.22968718 0.71860009 4278190080
0.028294027 0.22949879 0.71722221 4278190080
0.031428501 0.22942805 0.71700001 4278190080
0.023321962 0.23258932 0.71900004 4278190080
0.025030762 0.23232242 0.71740001 4278190080
0.028285651 0.23257087 0.71700001 4278190080
0.02034305 0.236771 0.71766669 4278190336
0.022792457 0.23635897 0.71820009 4278190080
0.0251428 0.23508517 0.71700001 4278190080
0.028285651 0.23445661 0.71700001 4278190080
0.031428501 0.23445661 0.71700001 4278190080
0.043371331 0.23571375 0.71700001 4278190080
0.019003153 0.23849313 0.71780002 4278190080
0.02199995 0.23822802 0.71700001 4278190080
0.018228529 0.2407423 0.71700001 4278190080
0.034179479 0.21520415 0.72200006 4278190080
0.037186008 0.21472943 0.72200006 4278190080
0.04029803 0.21541514 0.72200006 4278190080
0.042407874 0.21583711 0.72200006 4278190080
0.028482901 0.21836893 0.72200006 4278190080
0.031647667 0.21773596 0.72200006 4278190080
0.03474756 0.21733327 0.72066671 4278190080
0.037925478 0.21743438 0.72100008 4278190080
0.040452033 0.21743438 0.72100008 4278190080
0.023419274 0.22026777 0.72200006 4278190080
0.025318135 0.22026777 0.72200006 4278190080
0.028456599 0.22069556 0.72133338 4278190080
0.03158864 0.22049218 0.72066671 4278190080
0.034715999 0.2196576 0.72000003 4278190080
0.03799824 0.22003631 0.72000003 4278190080
0.025318136 0.22343254 0.72200006 4278190080
0.028151518 0.22331855 0.72000003 4278190080
0.03156 0.22281359 0.72000003 4278190080
0.023419274 0.22723027 0.72200006 4278190080
0.025415968 0.22672458 0.72120005 4278190080
0.027141599 0.2253384 0.72000003 4278190080
0.020887461 0.22976208 0.72200006 4278714627
0.02308658 0.22960207 0.72150004 4278190080
0.024685182 0.22849616 0.72200006 4278190080
0.019765329 0.23229082 0.72150004 4278846721
0.022112457 0.23186374 0.72066671 4278190080
0.020426918 0.23481284 0.72066671 4278584064
0.022092 0.23480639 0.72000003 4278190080
0.043591958 0.23439205 0.72066671 4278453253
0.038135 0.20910692 0.72500002 4278190080
0.043794759 0.20945233 0.72400004 4278190080
0.045064174 0.20945233 0.72400004 4278190080
0.029448694 0.2124967 0.72500008 4278190080
0.031735037 0.21135615 0.72399998 4278190080
0.034258381 0.21125884 0.72366667 4278190080
0.03743045 0.21125884 0.72366673 4278190080
0.040602524 0.21125883 0.72366667 4278190080
0.04299717 0.21143499 0.7234 4278190080
0.046492919 0.21151491 0.72400004 4280162835
0.026058916 0.21546274 0.72500002 4278190080
0.028548064 0.21443151 0.72366667 4278190080
0.031691499 0.21423455 0.72300005 4278190080
0.03422682 0.21360071 0.72300005 4278190080
0.038663633 0.21360071 0.72300005 4278190080
0.040776398 0.21402328 0.72300005 4278190080
0.042889163 0.21402328 0.72300005 4278190080
0.045001931 0.21423455 0.72300005 4278190080
0.025387974 0.21770322 0.72400004 4278190080
0.02852235 0.21676986 0.72300005 4278190080
0.031691499 0.21613604 0.72300005 4278190080
0.023029156 0.22331946 0.72300005 4278190080
0.020627527 0.2265894 0.72400004 4279767817
0.022691116 0.22602376 0.72300005 4278190080
0.019992821 0.22912823 0.72399998 4279373577
0.022184052 0.22881263 0.72300005 4278190080
0.03765459 0.20359005 0.72799999 4278190080
0.032123405 0.20571743 0.72799999 4278190080
0.034463521 0.20550469 0.72800004 4278190080
0.03765459 0.2055047 0.7280001 4278190080
0.040845655 0.20550469 0.72800004 4278190080
0.043185771 0.20571743 0.72799999 4278190080
0.046589572 0.2061429 0.72799999 4279505682
0.049142428 0.20550469 0.72800004 4283451457
0.025528533 0.20997219 0.72800004 4278190080
0.028890425 0.20897806 0.72771442 4278190080
0.031896058 0.20859963 0.72766668 4278190080
0.034447741 0.20859964 0.72766668 4278190080
0.037465103 0.20828989 0.72785723 4278190080
0.04082695 0.20859963 0.7276668 4278190080
0.043234922 0.20826849 0.7274 4278190080
0.046725571 0.20842871 0.72762507 4279834904
0.049461536 0.20837666 0.72800004 4283256129
0.019784613 0.21252504 0.72800004 4282530090
0.022337466 0.21252505 0.72799999 4279176714
0.025519548 0.21181385 0.72775006 4278190080
0.028432757 0.21152635 0.72720003 4278190080
0.022592751 0.21431205 0.72800004 4278716165
0.025502015 0.21421854 0.72725004 4278190080
0.027405476 0.21350779 0.72700006 4278190080
0.023294786 0.21731164 0.72800004 4278190080
0.024856132 0.21605714 0.72700006 4278190080
0.023613892 0.22018361 0.72800004 4278190080
0.018924603 0.22688746 0.72766668 4280029194
0.018482765 0.2294412 0.72700006 4279438854
0.018495476 0.23215054 0.72750008 4278978570
0.032255784 0.20015673 0.73100001 4278190080
0.034593485 0.19987451 0.73074996 4278190080
0.037143487 0.19980592 0.73049998 4278190080
0.040373128 0.20058398 0.73100001 4278190080
0.028837949 0.20314734 0.73100001 4278190080
0.031379256 0.20236783 0.73049998 4278190080
0.034558199 0.20222947 0.73000002 4278190080
0.037118062 0.20222946 0.73000002 4278190080
0.0403179 0.20222946 0.73000002 4278190080
0.043577343 0.2025065 0.73100001 4278190080
0.025615761 0.20685081 0.73049998 4278190080
0.028177673 0.20556943 0.73049998 4278190080
0.030931721 0.20500267 0.73000002 4278190080
0.034558199 0.20414937 0.73000002 4278190080
0.040957868 0.20414937 0.73000002 4278190080
0.043731052 0.20457602 0.73000002 4278190080
0.046486828 0.20502917 0.73039997 4278979338
0.023678767 0.20926909 0.73000002 4278190080
0.025598668 0.20862913 0.73000002 4278190080
0.028158534 0.20798916 0.73000002 4278190080
0.019866142 0.21211913 0.73100001 4282926113
0.022660607 0.21137503 0.73019999 4278847750
0.032388154 0.19454344 0.73400003 4278190080
0.034533069 0.19454344 0.73400003 4278190080
0.037321452 0.19497243 0.73400003 4278190080
0.039251875 0.19497243 0.73400003 4278190080
0.031787582 0.19703154 0.73400003 4278190080
0.03474756 0.19690284 0.73400003 4278190080
0.037321452 0.19690284 0.73400003 4278190080
0.028312827 0.19947673 0.73400003 4278190080
0.03123844 0.19913062 0.73320001 4278190080
0.034700222 0.19856237 0.73300004 4278190080
0.037270606 0.19856237 0.73300004 4278190080
0.026051685 0.20294636 0.73375005 4278190080
0.028153274 0.20221579 0.73320001 4278190080
0.030202042 0.20113276 0.73300004 4278190080
0.023808513 0.20591147 0.73400003 4278190080
0.025712414 0.20570086 0.73325002 4278190080
0.022772467 0.20855705 0.73379999 4278651143
0.019947674 0.21170272 0.73400003 4282730035
0.021653375 0.21074921 0.73366666 4280164373
0.032261334 0.1909871 0.73600006 4278190080
0.034842242 0.1909871 0.73600006 4278190080
0.037423149 0.1909871 0.73600006 4278190080
0.039358828 0.1909871 0.73600006 4278190080
0.029035201 0.19356801 0.73600006 4278190080
0.031358015 0.19343896 0.73600006 4278190080
0.035057317 0.19335294 0.73600006 4278190080
0.037423149 0.19356801 0.73600006 4278190080
0.040391188 0.19369705 0.73600006 4278190080
0.026454294 0.19679414 0.73600006 4278190080
0.028605051 0.19636399 0.73600006 4278190080
0.030325655 0.19614892 0.73600006 4278190080
0.025938112 0.19963315 0.73600006 4278190080
0.028389975 0.19808461 0.73600006 4278190080
0.023228161 0.20260116 0.73600006 4278190080
0.025163841 0.20260118 0.73600006 4278190080
0.020002028 0.20582733 0.73600006 4283057479
0.022582933 0.20518211 0.73600006 4278716683
0.019356802 0.20905344 0.73600006 4282533943
0.021722632 0.2075479 0.73600006 4279245079
0.019356802 0.21098913 0.73600006 4282598713
0.031744976 0.18852629 0.73900002 4278190080
0.03457661 0.18790595 0.73859996 4278190080
0.037563197 0.18781465 0.73875004 4278190080
0.039519258 0.18852629 0.73900002 4278190080
0.043406397 0.18852629 0.73900002 4278190080
0.028505694 0.19111772 0.73900002 4278190080
0.03138883 0.18995284 0.73825002 4278190080
0.03493692 0.18956514 0.73800004 4278190080
0.037524842 0.18956514 0.73800004 4278190080
0.040346831 0.19008207 0.7383334 4278190080
0.026220225 0.19357765 0.7385 4278190080
0.028153054 0.19318861 0.73825008 4278190080
0.03040806 0.19215305 0.73800004 4278190080
0.040759742 0.19215305 0.73800004 4278190080
0.020083556 0.19759628 0.73900002 4283255378
0.023045186 0.19648567 0.73899996 4278650373
0.025564257 0.19610089 0.73825002 4278190080
0.02782014 0.19603494 0.73800004 4278190080
0.020069968 0.1994044 0.7385 4283123786
0.022649122 0.1993147 0.73816663 4279176717
0.02523222 0.19862285 0.73800004 4278190080
0.0194357 0.20213127 0.73900002 4282729765
0.022132503 0.20204203 0.73820007 4279966229
0.019301044 0.20505548 0.73880005 4282859567
0.021350341 0.20509267 0.73800004 4280231464
0.019409399 0.20768058 0.73800004 4282072366
0.03122336 0.18278676 0.74200004 4278190080
0.034215599 0.18226637 0.74200004 4278190080
0.037728228 0.18278676 0.74200004 4278190080
0.040330172 0.18278676 0.74200004 4278190080
0.026019467 0.1853887 0.74200004 4278190080
0.028621413 0.1847382 0.74200004 4278190080
0.03121262 0.18467575 0.74175006 4278190080
0.034436781 0.1845306 0.74116677 4278190080
0.037677381 0.18448924 0.74100006 4278190080
0.040302999 0.18461329 0.74150002 4278190080
0.043563321 0.18465494 0.74166673 4278190080
0.046618212 0.18452139 0.74200004 4278190080
0.025368979 0.18734016 0.74200004 4278190080
0.02861155 0.18727683 0.74175 4278190080
0.031181281 0.18708768 0.74100006 4278190080
0.034104526 0.18676288 0.74100006 4278190080
0.037677381 0.18643808 0.74100006 4278190080
0.04027582 0.18708768 0.74100006 4278190080
0.043523874 0.1870877 0.74100012 4278190080
0.046555385 0.18730421 0.741 4278190080
0.022116549 0.19124308 0.74200004 4279966483
0.025349597 0.19044951 0.74144453 4278190080
0.028582839 0.18968612 0.74100006 4278190080
0.030531671 0.18903652 0.74100006 4278190080
0.040925432 0.18903652 0.74100006 4278190080
0.046771921 0.18968612 0.74100006 4278190080
0.048720751 0.18903652 0.74100006 4282071351
0.022101205 0.19371441 0.74150002 4279835410
0.024468645 0.19336724 0.741 4278190080
0.021437131 0.19618222 0.74100006 4281217314
0.029429702 0.17919418 0.74600005 4278190080
0.03137736 0.17845982 0.74566668 4278190080
0.034463301 0.17852288 0.74525011 4278190080
0.037880767 0.17895308 0.745 4278190080
0.04032959 0.17941217 0.74600005 4278190080
0.042509567 0.17984816 0.74600005 4278190080
0.025832739 0.18213716 0.74600005 4278190080
0.028755983 0.18168786 0.74550003 4278190080
0.031307522 0.18132272 0.74400002 4278190080
0.034894843 0.18099658 0.74400002 4278190080
0.037829921 0.18132272 0.74400002 4278190080
0.040466495 0.18144414 0.74450004 4278190080
0.04316356 0.18181016 0.74600005 4278190080
0.046097238 0.18164743 0.74479997 4278190080
0.022235774 0.18508011 0.74600005 4280163610
0.025289075 0.18449375 0.74514288 4278190080
0.02869856 0.18327944 0.74400002 4278190080
0.043047838 0.18327944 0.74400002 4278190080
0.046309039 0.18327944 0.74400002 4278190080
0.022517623 0.18764392 0.74450004 4279176975
0.020255676 0.19014083 0.74533337 4283650643
0.02217616 0.18980183 0.74400002 4280098074
0.02021944 0.19306304 0.74400002 4283320913
0.034801036 0.17006543 0.74900001 4278190080
0.036114283 0.17006543 0.74900001 4278190080
0.029548051 0.17269193 0.74900001 4278190080
0.031824753 0.17257577 0.74850005 4278190080
0.034083631 0.17238335 0.74766666 4278190080
0.037372399 0.1724346 0.74788892 4278190080
0.040535837 0.17276874 0.74820006 4278190080
0.02593662 0.17630337 0.74900001 4278190080
0.02886571 0.1751612 0.74833339 4278190080
0.031319268 0.17520516 0.74739999 4278190080
0.03405324 0.17550516 0.74700004 4278190080
0.037327588 0.17550516 0.74700004 4278190080
0.040601939 0.17550516 0.74700004 4278190080
0.022325192 0.17860153 0.74900001 4280361759
0.025562139 0.17828302 0.74766666 4278190080
0.028595991 0.17790635 0.74700004 4278190080
0.037327588 0.17746978 0.74700004 4278190080
0.04082023 0.17790635 0.74700004 4278190080
0.043221422 0.17812464 0.74700004 4278190080
0.049180999 0.17836222 0.74800003 4282992963
0.022265581 0.18139899 0.74700004 4280229402
0.025277983 0.18061313 0.74700004 4278190080
0.028159412 0.18008925 0.74700004 4278190080
0.04387629 0.18008925 0.74700004 4278190080
0.046823204 0.18041669 0.74700004 4278190080
0.049115248 0.18074411 0.74700004 4282532416
0.02226558 0.18401848 0.74700004 4280164380
0.0296664 0.17074661 0.75200003 4278190080
0.031758834 0.16960099 0.75160003 4278190080
0.034094971 0.16889334 0.75080001 4278190080
0.03752033 0.16916962 0.75085723 4278190080
0.040653955 0.17030711 0.75200003 4278190080
0.025710879 0.17338364 0.75200003 4278190080
0.028053334 0.17240879 0.75120008 4278190080
0.030902501 0.17160751 0.75000006 4278190080
0.041422501 0.17160751 0.75000006 4278190080
0.022394741 0.17586343 0.75133342 4279835931
0.025406152 0.17494935 0.75080001 4278190080
0.046993718 0.16083765 0.75500005 4278190080
0.048979368 0.16083765 0.75500005 4281282604
0.029122867 0.16480896 0.75500005 4278190080
0.031991031 0.16436771 0.75500005 4278190080
0.034406319 0.1640925 0.75475007 4278190080
0.037049104 0.16341241 0.75466675 4278190080
0.040374883 0.16348518 0.75500005 4278190080
0.043684304 0.16414708 0.75500005 4278190080
0.046464212 0.16374993 0.75500005 4278190080
0.049641252 0.16348518 0.75500005 4282269246
0.02272466 0.16701524 0.75500005 4279637520
0.024489684 0.16679461 0.75500005 4278190080
0.028725738 0.16692699 0.75500005 4278190080
0.03172832 0.16657367 0.75400001 4278190080
0.034372345 0.16657367 0.75400001 4278190080
0.037677377 0.16657366 0.75400001 4278190080
0.04100959 0.16668372 0.75450003 4278190080
0.043670058 0.16673917 0.75475007 4278190080
0.046331838 0.16679461 0.75500005 4278190080
0.049641252 0.16679461 0.75500005 4282400061
0.022504034 0.17010403 0.75500005 4280492569
0.025151568 0.17010403 0.75500005 4278190080
0.028435269 0.16929251 0.75433332 4278190080
0.031067312 0.16855669 0.75400001 4278190080
0.03899939 0.16855669 0.75400001 4278190080
0.04120275 0.16899736 0.75400001 4278190080
0.043641128 0.1692736 0.75425005 4278190080
0.046300713 0.16932991 0.75450003 4278190080
0.048914492 0.16921771 0.75400001 4280689698
0.02261835 0.17261356 0.75440001 4279900688
0.024999376 0.17234915 0.75440001 4278190080
0.027762279 0.17120072 0.75400001 4278190080
0.043626443 0.17120072 0.75400001 4278190080
0.046270467 0.17120072 0.75400001 4278190080
0.048253484 0.17120072 0.75400001 4278190080
0.035172746 0.1612637 0.75700003 4278190080
0.037163652 0.16060007 0.75700003 4278190080
0.040481836 0.16060007 0.75700003 4278190080
0.044021234 0.16082127 0.75700003 4278190080
0.045790929 0.16060007 0.75700003 4278190080
0.029200014 0.16391826 0.75700003 4278190080
0.031854562 0.16325462 0.75700003 4278190080
0.034509107 0.16259098 0.75700003 4278190080
0.043800019 0.16259098 0.75700003 4278190080
0.045790929 0.16259098 0.75700003 4278190080
0.025881829 0.16790009 0.75700003 4278190080
0.027209103 0.16590917 0.75700003 4278190080
0.025218192 0.16922735 0.75700003 4278190080
0.034691453 0.15277582 0.76100004 4278190080
0.037360027 0.15210868 0.76100004 4278190080
0.040028602 0.15277582 0.76100004 4278190080
0.03224526 0.15499963 0.76099998 4278190080
0.034691453 0.15477726 0.76100004 4278190080
0.037360027 0.15477726 0.76100004 4278190080
0.040028602 0.15477726 0.76100004 4278190080
0.028687164 0.15811297 0.76100004 4278190080
0.031341419 0.15737657 0.76066667 4278190080
0.034645867 0.15723807 0.76000005 4278190080
0.037310936 0.15723807 0.76000011 4278190080
0.04036472 0.15732995 0.75980008 4278190080
0.043631174 0.15731239 0.76100004 4278190080
0.046700034 0.15811297 0.76100004 4278190080
0.028870679 0.16079149 0.76000005 4278190080
0.031664826 0.16022874 0.75928581 4278190080
0.034467202 0.16009283 0.75900006 4278190080
0.037261844 0.15902822 0.75900006 4278190080
0.040588792 0.15902822 0.75900006 4278190080
0.043693945 0.15947181 0.75900006 4278190080
0.046840593 0.15961149 0.75966674 4278190080
0.049270861 0.15979837 0.75950009 4281871664
0.023350017 0.1647844 0.76100004 4278190080
0.025573827 0.16433965 0.76099998 4278190080
0.028093839 0.16310576 0.75940007 4278190080
0.031273331 0.16302055 0.75900006 4278190080
0.020681445 0.16678584 0.76100004 4284175185
0.022460492 0.16656345 0.76099998 4281150489
0.025506616 0.1661257 0.75900006 4278190080
0.02262326 0.16967446 0.75900006 4280492569
0.03549799 0.14668036 0.76400006 4278190080
0.037507311 0.14668036 0.76400006 4278190080
0.040186401 0.14668036 0.76400006 4278190080
0.032372382 0.14891295 0.76400012 4278190080
0.034804981 0.14859194 0.76350009 4278190080
0.037458211 0.14849418 0.76300007 4278190080
0.0401338 0.14849418 0.76300007 4278190080
0.028353738 0.15159203 0.76400012 4278190080
0.031405706 0.15168436 0.76222229 4278190080
0.034737036 0.15097252 0.76200002 4278190080
0.037409119 0.15030451 0.76200002 4278190080
0.040081203 0.15097252 0.76200002 4278190080
0.025651852 0.15502799 0.76333332 4278190080
0.028081387 0.15444647 0.7626667 4278190080
0.030506248 0.15475796 0.76200002 4278190080
0.023442067 0.15806651 0.76400006 4278190080
0.025264129 0.15733361 0.76240003 4278190080
0.027834168 0.15743005 0.76200002 4278190080
0.022742486 0.16053432 0.76300001 4280755481
0.025384758 0.1603248 0.76200002 4278190080
0.027388819 0.15965678 0.76200002 4278190080
0.020708621 0.16366489 0.76200002 4284637794
0.022712678 0.16299687 0.76200002 4280558355
0.025162086 0.16277421 0.76200002 4278190080
0.020708621 0.16500093 0.76200002 4284241991
0.022044659 0.16500093 0.76200002 4282794784
0.032947764 0.1432219 0.76700002 4283110405
0.034292568 0.1432219 0.76700002 4283176454
0.031939156 0.14557533 0.76700002 4278517760
0.034953356 0.14519157 0.76675004 4278976512
0.037630476 0.14581642 0.7665 4278190080
0.040344201 0.14591153 0.76700002 4278255616
0.028222091 0.14984819 0.7665 4278190080
0.03112722 0.14802398 0.76633334 4278190080
0.03424786 0.14706434 0.76600003 4278190080
0.023534117 0.15263556 0.76700002 4278190080
0.025542779 0.1519134 0.76674998 4278190080
0.027532594 0.1510935 0.76600003 4278190080
0.023065394 0.15474246 0.76633334 4280098075
0.025518013 0.1537796 0.76600003 4278190080
0.020817326 0.15713724 0.76600003 4285293910
0.022608066 0.1569134 0.76600003 4282005301
0.022160381 0.15915182 0.76600003 4283583557
0.02629211 0.14359537 0.76900005 4283579698
0.031011209 0.14359537 0.76900005 4283172886
0.034381989 0.1426965 0.76900005 4282782982
0.037752774 0.14359537 0.76900005 4282715662
0.039775245 0.14359537 0.76900005 4283438102
0.02629211 0.14494368 0.76900005 4281994752
0.028314581 0.14561784 0.76900005 4279369732
0.031011209 0.14494368 0.76900005 4279894016
0.037752774 0.14494368 0.76900005 4280156160
0.040449403 0.14494368 0.76900005 4281206277
0.02629211 0.14831448 0.76900005 4278190080
0.028314579 0.14831448 0.76900005 4278190080
0.023595484 0.15168525 0.76900005 4278190080
0.025617953 0.15033694 0.76900005 4278190080
0.022247171 0.15370773 0.76900005 4283914567
0.02853848 0.14296067 0.77140009 4282589205
0.031132188 0.14212431 0.77200007 4282586633
0.034876432 0.14187798 0.77250004 4282586624
0.037925042 0.1422168 0.77250004 4282849539
0.040773943 0.14264122 0.77260005 4282652422
0.04333305 0.14286248 0.77233338 4283311886
0.04528597 0.14396884 0.77100003 4283573248
0.026360489 0.14667247 0.77100003 4281139200
0.023656849 0.14870019 0.77100003 4278649088
0.025008669 0.14870019 0.77100003 4278190080
0.022774925 0.15130888 0.77166671 4282466098
0.038096428 0.13673896 0.77600002 4278190080
0.031293493 0.14014041 0.77600002 4279964934
0.034479737 0.13944918 0.77500004 4279305728
0.037748773 0.13905938 0.77485722 4279109120
0.040597383 0.13944331 0.77440006 4279173633
0.043200377 0.14000542 0.77399999 4283580478
0.034102336 0.13709138 0.77800006 4278190080
0.037512571 0.13640934 0.77800006 4278190080
0.040922802 0.13640934 0.77800006 4278190080
0.032056194 0.13845547 0.77800006 4278190080
0.041604847 0.13845547 0.77800006 4278190080
0.032179803 0.13419662 0.78100002 4278190080
0.034222655 0.13415346 0.78075004 4278190080
0.037354417 0.13422994 0.7804001 4278190080
0.040648755 0.13399062 0.78060007 4278190080
0.032159202 0.13684723 0.78050005 4278190080
0.034189999 0.1360762 0.78000003 4278190080
0.036925197 0.1360762 0.78000003 4278190080
0.041290998 0.12869027 0.78500003 4278190080
0.032344617 0.13144301 0.78500003 4278190080
0.034321502 0.13110813 0.78300005 4278190080
0.03706722 0.13110813 0.78300005 4278190080
0.040837415 0.13075851 0.78420007 4278190080
0.043355551 0.13075483 0.78500003 4282665283
0.031346969 0.13293861 0.78300005 4279243023
0.034321502 0.13248099 0.78300005 4278190080
0.03706722 0.13248099 0.78300005 4278190080
0.040499374 0.13248099 0.78300005 4278190080
0.043466013 0.12694837 0.78700012 4281742388
0.034496836 0.13039804 0.78700006 4278190080
0.037256584 0.1297081 0.78700006 4278190080
0.039326392 0.1297081 0.78700006 4278190080
0.044155948 0.12901816 0.78700006 4283914831
0.032550633 0.12535457 0.79000002 4278190080
0.034859188 0.12489286 0.79000002 4278190080
0.037386544 0.12462233 0.78974998 4278190080
0.040143441 0.12458266 0.7895 4278190080
0.043321535 0.12470531 0.78939998 4280492578
0.031837903 0.12735116 0.7895 4279242257
0.03459524 0.12731107 0.78925002 4278190080
0.037351258 0.12727097 0.78900003 4278190080
0.04011802 0.12727097 0.78900003 4278190080
0.0320483 0.12980716 0.78900003 4279110920
0.0345845 0.12934603 0.78900003 4278190080
0.077264138 0.11345996 0.79400003 4278190080
0.078656286 0.11345996 0.79400003 4281084189
0.077264138 0.11554818 0.79400003 4278190082
0.078656286 0.11554818 0.79400003 4281283114
0.077264138 0.11763639 0.79400003 4279046672
0.078656286 0.11763639 0.79400003 4282073664
0.035410319 0.12220032 0.79200006 4278190080
0.037493281 0.12220032 0.79200006 4278190080
0.040296424 0.12227703 0.79250008 4278190080
0.042406999 0.12235373 0.79300004 4278190080
0.029931154 0.12459712 0.79400003 4281480232
0.031787347 0.12506117 0.79399997 4278453252
0.034064636 0.12374413 0.79300004 4278190080
0.070999473 0.12390105 0.79400003 4280428060
0.076063111 0.11374576 0.79600006 4278190080
0.074667454 0.11653706 0.79600006 4278190080
0.076063111 0.11583923 0.79600006 4278190080
0.037682641 0.11932836 0.79600006 4278190080
0.040473949 0.11932836 0.79600006 4278190080
0.074667454 0.11863054 0.79600006 4278190080
0.076528333 0.11886314 0.79600006 4279375378
0.032797854 0.12211968 0.79600006 4278190080
0.034658726 0.12118924 0.79600006 4278190080
0.037682641 0.12072401 0.79600006 4278190080
0.040473949 0.12072401 0.79600006 4278190080
0.074667454 0.12142184 0.79600006 4278519304
0.076528333 0.12118924 0.79600006 4280230709
0.032100029 0.12351533 0.79600006 4278190080
0.069084845 0.12421315 0.79600006 4279967762
0.069782674 0.12630662 0.79600006 4283455823
0.077848002 0.11010933 0.80000001 4278190080
0.079250664 0.11010933 0.80000001 4281281324
0.074855059 0.11263239 0.79800004 4278190080
0.076609798 0.1119044 0.79880005 4278190080
0.079052538 0.1119328 0.79800004 4281478446
0.073560096 0.11519525 0.7991429 4278190080
0.028754665 0.11992799 0.80000001 4278190084
0.031524152 0.11839285 0.79911113 4278190080
0.035008222 0.11832663 0.79866672 4278190080
0.0375751 0.11786024 0.79866672 4278190080
0.039876062 0.11822902 0.79800004 4278190080
0.070273593 0.11880586 0.80000001 4278190080
0.072724767 0.11868664 0.7992 4278190080
0.028754665 0.122032 0.80000001 4280166732
0.031201268 0.121587 0.79800004 4278190089
0.070133328 0.12203199 0.80000001 4278190080
0.072801471 0.12180275 0.79850006 4278190080
0.030081941 0.12382565 0.79800004 4278191128
0.067859262 0.12522483 0.79800004 4282863668
0.07415548 0.12382565 0.79800004 4278913803
0.076254219 0.12382565 0.79800004 4284106560
0.067859262 0.12662397 0.79800004 4284244571
0.073212191 0.10489053 0.80300003 4278190080
0.076028042 0.10489053 0.80300003 4278190080
0.078843892 0.10489053 0.80300003 4281544999
0.073212184 0.10700242 0.80300003 4278190080
0.076028042 0.10700243 0.80300003 4278190080
0.078843892 0.10700243 0.80300003 4280098069
0.07063099 0.11005294 0.80300003 4278190080
0.073189169 0.10978387 0.80274999 4278190080
0.07593336 0.10968153 0.80200005 4278190080
0.078745708 0.10897844 0.80200005 4279899928
0.031209042 0.11286879 0.80300003 4278190080
0.034494203 0.11263413 0.80300003 4278190080
0.038014017 0.1133381 0.80300003 4278190080
0.068284445 0.1133381 0.80300003 4278190080
0.070396334 0.11263413 0.80300003 4278190080
0.073121011 0.11249387 0.80200005 4278190080
0.028862495 0.11544999 0.80300003 4278190080
0.030935815 0.11530621 0.80200005 4278190080
0.034451246 0.11530621 0.80200005 4278190080
0.038002402 0.11541383 0.80274999 4278190080
0.064999282 0.11568465 0.80300003 4278190080
0.067580476 0.11544999 0.80300003 4278190080
0.07030867 0.11530621 0.80200005 4278190080
0.028369227 0.1184023 0.80233335 4278190082
0.061948773 0.1189698 0.80300003 4278190080
0.064764626 0.11826584 0.80300003 4278190080
0.067517146 0.11815517 0.80225003 4278190080
0.069605581 0.11741547 0.80200005 4278190080
0.026046643 0.12108169 0.80300003 4285230953
0.02745457 0.12108169 0.80300003 4281019945
0.059836887 0.12178566 0.80300003 4284181370
0.061948776 0.12108169 0.80300003 4278981152
0.064764626 0.12108169 0.80300003 4278190083
0.067496322 0.12093091 0.80200005 4278190080
0.059836887 0.12389755 0.80300003 4285953911
0.062058359 0.12425752 0.80260003 4285362036
0.064710855 0.12449748 0.80233335 4281744195
0.067355707 0.1241651 0.80200005 4279176978
0.064723864 0.12733802 0.80250001 4286872444
0.066793233 0.12725869 0.80200005 4286214780
0.071277387 0.095271759 0.80500007 4278190080
0.072688818 0.095271759 0.80500007 4278190080
0.068454519 0.09809462 0.80500007 4278190080
0.070806913 0.097624145 0.80500007 4278190080
0.073394537 0.097388901 0.80500007 4278190080
0.075982161 0.097624145 0.80500007 4278190080
0.067984037 0.10044701 0.80500007 4278190080
0.070571676 0.10021177 0.80500007 4278190080
0.073394537 0.10021177 0.80500007 4278190080
0.076217405 0.10021177 0.80500007 4278190080
0.067984037 0.10279939 0.80500007 4278190080
0.070571676 0.10303464 0.80500007 4278190080
0.073394537 0.10303464 0.80500007 4278190080
0.076217405 0.10303464 0.80500007 4278190080
0.078334555 0.10303463 0.80500007 4280032286
0.038814418 0.10797466 0.80500007 4278190080
0.040931568 0.10797466 0.80500007 4278190080
0.062808782 0.10797466 0.80500007 4278190080
0.064925939 0.10797466 0.80500007 4278190080
0.067889944 0.10684551 0.80500013 4278190080
0.070571668 0.10656322 0.80500013 4278190080
0.028934384 0.11079752 0.80500007 4278190080
0.031051533 0.11079752 0.80500007 4278190080
0.034580115 0.11009181 0.80500013 4278190080
0.038108703 0.11009181 0.80500007 4278190080
0.062808782 0.10938609 0.80500007 4278190080
0.064925939 0.11009181 0.80500007 4278190080
0.067748807 0.11009181 0.80500007 4278190080
0.069865957 0.10938609 0.80500007 4278190080
0.028934384 0.11291467 0.80500007 4278190080
0.030345816 0.11220895 0.80500007 4278190080
0.038108703 0.11220895 0.80500007 4278190080
0.062808782 0.11291467 0.80500007 4278190080
0.064925939 0.11291467 0.80500007 4278190080
0.067513563 0.11267943 0.80500007 4278190080
0.027522951 0.11573754 0.80500007 4278190088
0.059985917 0.11644325 0.80500007 4278190080
0.062103067 0.11573754 0.80500007 4278190080
0.06422022 0.11503182 0.80500007 4278190080
0.025405802 0.11926612 0.80500007 4284572009
0.027522951 0.11785469 0.80500007 4278190080
0.059280202 0.1185604 0.80500007 4278190080
0.062103067 0.11785469 0.80500007 4278190080
0.024700085 0.12067756 0.80500007 4286741105
0.055751618 0.12138328 0.80500007 4286280816
0.058292199 0.12124214 0.80500013 4284769637
0.057868764 0.12350042 0.80500007 4286018929
0.071631551 0.092908256 0.80900002 4278190080
0.073576875 0.092678569 0.80700004 4278190080
0.076501437 0.092084192 0.80800009 4278190080
0.070569038 0.094642885 0.80766672 4278190080
0.073812701 0.094565161 0.80699998 4278190080
0.076406762 0.094800979 0.80700004 4278190080
0.067793511 0.097555168 0.8083334 4278190080
0.070039533 0.096923389 0.80700004 4278190080
0.077114232 0.096923389 0.80700004 4278190080
0.06595777 0.10070971 0.80900002 4278190080
0.067209646 0.099753268 0.80700004 4278190080
0.06170243 0.10425583 0.80900002 4278190080
0.064485557 0.10346068 0.8083334 4278190080
0.067209646 0.10399809 0.80700004 4278190080
0.031915046 0.10709272 0.80900002 4278190080
0.03404272 0.10709272 0.80900002 4278190080
0.036879614 0.10709272 0.80900002 4278190080
0.040425733 0.10709272 0.80900002 4278190080
0.061893195 0.10636719 0.80780011 4278190080
0.065087244 0.1061205 0.80700004 4278190080
0.067209646 0.10541303 0.80700004 4278190080
0.029078154 0.10992961 0.80900002 4278190080
0.031147528 0.10901745 0.8075 4278190080
0.033958562 0.10824291 0.80700004 4278190080
0.036788441 0.10824291 0.80700004 4278190080
0.060916938 0.10908539 0.80800009 4278190080
0.021985922 0.11205728 0.80900002 4278190080
0.02576845 0.11229369 0.80900002 4278190080
0.027636915 0.11267241 0.8083334 4278190080
0.058865536 0.1127665 0.80900002 4278190080
0.061188202 0.11236473 0.80757147 4278190080
0.023404369 0.1156034 0.80900002 4278190080
0.025489962 0.11541171 0.80766672 4278190084
0.05843816 0.11545963 0.80800009 4278190080
0.060134947 0.11531761 0.80700004 4278190080
0.023404369 0.11702184 0.80900002 4280492333
0.025499603 0.11829389 0.80800003 4283781712
0.053191751 0.11985874 0.80900002 4283191631
0.055463482 0.11918956 0.80766672 4282598712
0.057352409 0.11824393 0.80766672 4279639841
0.053191751 0.12127719 0.80900002 4286478451
0.054610193 0.12127719 0.80900002 4286149486
0.073941574 0.086028174 0.81100005 4278190080
0.076074511 0.086028174 0.81100005 4278190080
0.071808644 0.088161111 0.81100005 4278190080
0.073941574 0.088161103 0.81100005 4278190080
0.076785482 0.088161111 0.81100005 4278190080
0.07133466 0.091242008 0.81100005 4278190080
0.073941574 0.091005012 0.81100005 4278190080
0.076785482 0.090294041 0.81100005 4278190080
0.06782718 0.095413066 0.81100005 4278190080
0.070386685 0.093137942 0.81100005 4278190080
0.079866379 0.094085909 0.81100005 4283320644
0.061854973 0.098825753 0.81100005 4278190080
0.064224891 0.098351777 0.81100005 4278190080
0.066120833 0.098114781 0.81100005 4278190080
0.061854973 0.10095869 0.81100005 4278190080
0.063987896 0.10095869 0.81100005 4278190080
0.040525671 0.10451358 0.81100005 4278190080
0.04336958 0.10451358 0.81100005 4278190080
0.060907003 0.1035656 0.81100005 4278190080
0.028439067 0.10735748 0.81100005 4278190080
0.031045983 0.10640951 0.81100005 4278190080
0.034126878 0.10593552 0.81100005 4278190080
0.036970787 0.10593552 0.81100005 4278190080
0.040525671 0.10593552 0.81100005 4278190080
0.044080555 0.1066465 0.81100005 4278190080
0.049768366 0.1066465 0.81100005 4278190080
0.059011064 0.1066465 0.81100005 4278190080
0.060433019 0.10593552 0.81100005 4278190080
0.02346223 0.10949041 0.81100005 4278190080
0.025595162 0.10949041 0.81100005 4278190080
0.028202074 0.10925341 0.81100005 4278190080
0.055693168 0.10972741 0.81100005 4278190080
0.058300085 0.10949041 0.81100005 4278190080
0.02346223 0.11233431 0.81100005 4278190080
0.024884185 0.11162334 0.81100005 4278190080
0.05545618 0.11233432 0.81100005 4278190080
0.058063094 0.11209732 0.81100005 4278190080
0.022514261 0.11494124 0.81100005 4278716424
0.055456176 0.11517823 0.81100005 4278190080
0.05758911 0.11446725 0.81100005 4278190080
0.022514261 0.11825912 0.81100005 4284175698
0.052612275 0.11802213 0.81100005 4280492820
0.055219188 0.11778513 0.81100005 4279440654
0.022893447 0.12129263 0.81100005 4285818981
0.024884185 0.12299897 0.81100005 4285952105
0.052256785 0.12193251 0.81100005 4285754985
0.072877303 0.080736622 0.81500006 4278190080
0.075735241 0.080736622 0.81500006 4278190080
0.067875914 0.082880065 0.81500006 4278190080
0.070412643 0.082981929 0.81459999 4278190080
0.073500603 0.0827775 0.81400001 4278190080
0.07669799 0.08269614 0.81459999 4278190080
0.067119792 0.085684963 0.81450003 4278190080
0.070560269 0.085527599 0.81300002 4278190080
0.074123919 0.084814869 0.81300002 4278190080
0.067078151 0.08848723 0.81400001 4278190080
0.069847539 0.088378519 0.81300002 4278190080
0.065017991 0.091453865 0.81500006 4278190080
0.067078151 0.091341659 0.81400001 4278190080
0.069609962 0.090991862 0.81300002 4278190080
0.061445564 0.094311796 0.81500006 4278190080
0.064263612 0.094253503 0.81450003 4278190080
0.066759042 0.093842782 0.81300002 4278190080
0.069134809 0.093367629 0.81300002 4278190080
0.034295201 0.097169735 0.81500006 4278190080
0.036914974 0.0974079 0.81500006 4278190080
0.040011071 0.097884215 0.81500006 4278190080
0.055729702 0.097884215 0.81500006 4278190080
0.058587637 0.097169735 0.81500006 4278190080
0.06133204 0.096990459 0.81349999 4278190080
0.063908122 0.096693702 0.81300002 4278190080
0.031774782 0.10067947 0.81450003 4278190080
0.034239095 0.10057616 0.81366676 4278190080
0.037092347 0.10057616 0.81366676 4278190080
0.039945614 0.10057617 0.81366676 4278190080
0.042663336 0.10087822 0.81380004 4278190080
0.053586252 0.10074215 0.81500006 4278190080
0.055729702 0.10002767 0.81500006 4278190080
0.058467533 0.10053555 0.81333345 4278190080
0.060582053 0.10049493 0.81300002 4278190080
0.02585132 0.10326274 0.81459999 4278190080
0.028555959 0.10351416 0.81433338 4278190080
0.031232651 0.10368109 0.81339997 4278190080
0.03421104 0.10405858 0.81300002 4278190080
0.03706196 0.10405858 0.81300002 4278190080
0.039912879 0.10334585 0.81300002 4278190080
0.043476533 0.103821 0.81300002 4278190080
0.046402842 0.10280085 0.81433338 4278190080
0.049932014 0.10342943 0.81366664 4278190080
0.052936465 0.10373195 0.81380004 4278190080
0.055638533 0.10342943 0.81366676 4278190080
0.058443863 0.10405858 0.81300002 4278190080
0.025528008 0.10653341 0.81339997 4278190080
0.0285092 0.10619677 0.81300002 4278190080
0.052742019 0.1069095 0.81300002 4278190080
0.055592939 0.1069095 0.81300002 4278190080
0.057731133 0.1069095 0.81300002 4278190080
0.053454749 0.10904769 0.81300002 4278190080
0.054880209 0.10904769 0.81300002 4278190080
0.076637328 0.072339907 0.81700003 4278190080
0.073772371 0.076637328 0.81700003 4278190080
0.075921088 0.076637328 0.81700003 4278190080
0.067326248 0.080934748 0.81700003 4278190080
0.070549309 0.079860389 0.81700003 4278190080
0.073056139 0.07878603 0.81700003 4278190080
0.075921088 0.07878603 0.81700003 4278190080
0.065177538 0.08379969 0.81700003 4278190080
0.066610008 0.083083451 0.81700003 4278190080
0.062312588 0.086664632 0.81700003 4278190080
0.064461306 0.085948393 0.81700003 4278190080
0.059447646 0.089529589 0.81700003 4278190080
0.061835095 0.089052103 0.81700009 4278190080
0.064461306 0.08881335 0.81700003 4278190080
0.059447646 0.091678292 0.81700003 4278190080
0.061596349 0.091678292 0.81700003 4278190080
0.063745067 0.091678292 0.81700003 4278190080
0.034379359 0.095259473 0.81700003 4278190080
0.03652807 0.095259473 0.81700003 4278190080
0.056582693 0.094543234 0.81700003 4278190080
0.058731407 0.094543234 0.81700003 4278190080
0.029365703 0.098124422 0.81700003 4278190080
0.031514414 0.09740819 0.81700003 4278190080
0.037960544 0.096691951 0.81700003 4278190080
0.040109254 0.096691951 0.81700003 4278190080
0.0429742 0.098124422 0.81700003 4278190080
0.053717747 0.09740819 0.81700003 4278190080
0.055866458 0.096691951 0.81700003 4278190080
0.025545776 0.10051188 0.81700009 4278190080
0.028649466 0.10027313 0.81700003 4278190080
0.030798176 0.099556893 0.81700003 4278190080
0.043690436 0.099556893 0.81700003 4278190080
0.046197265 0.10063125 0.81700003 4278190080
0.050136566 0.10098937 0.81700003 4278190080
0.053001512 0.10027313 0.81700003 4278190080
0.052285276 0.10242184 0.81700003 4278190080
0.067655876 0.071254596 0.82100004 4278190080
0.070534848 0.070534848 0.82100004 4278190080
0.073234983 0.070363022 0.81900007 4278190080
0.065496646 0.073413819 0.82100004 4278190080
0.067655876 0.073413819 0.82100004 4278190082
0.070534848 0.073413819 0.82100004 4278190080
0.073234983 0.073234983 0.81900007 4278190080
0.075867608 0.07347431 0.81900007 4278190080
0.062617667 0.077012539 0.82100004 4278190080
0.065016814 0.076532714 0.82100004 4278190080
0.067614228 0.076245897 0.82050002 4278190080
0.070405543 0.076152965 0.81950003 4278190080
0.072995655 0.075867608 0.81900007 4278190080
0.076106936 0.075388953 0.81900007 4278190080
0.059258867 0.079411685 0.82100004 4278190080
0.061859787 0.07912311 0.82050008 4278190080
0.064698003 0.079074457 0.82000005 4278190080
0.067491062 0.078978904 0.81900007 4278190080
0.069645032 0.078978904 0.81900007 4278190080
0.05685972 0.082050741 0.82100004 4278190080
0.058946192 0.081950799 0.82000005 4278190080
0.061747141 0.081850864 0.81900007 4278190080
0.064619102 0.081850864 0.81900007 4278190080
0.056256223 0.085319132 0.82060003 4278190080
0.058922525 0.085509777 0.81966668 4278190080
0.061603546 0.085153617 0.81900007 4278190080
0.063901111 0.084004834 0.81900007 4278190080
0.053980753 0.089967921 0.82100004 4278190080
0.055940628 0.088729367 0.82020009 4278190080
0.05863585 0.08879143 0.81900007 4278190080
0.061029151 0.088312775 0.81900007 4278190080
0.028789733 0.092127144 0.82100004 4278190080
0.031428795 0.09236706 0.82100004 4278190080
0.034547679 0.092846893 0.82100004 4278190080
0.037426651 0.092846893 0.82100004 4278190080
0.040305629 0.092846893 0.82100004 4278190080
0.053195257 0.092014939 0.82000005 4278190080
0.05600322 0.091902733 0.81900007 4278190080
0.058157191 0.091902725 0.81900007 4278190080
0.0287196 0.094774678 0.81900007 4278190080
0.031591561 0.094774678 0.81900007 4278190080
0.034463521 0.094056696 0.81900007 4278190080
0.037574813 0.094535351 0.81900007 4278190080
0.040207442 0.094774686 0.81900007 4278190080
0.04315874 0.094947822 0.82050008 4278190080
0.046063572 0.095006123 0.82100004 4278190080
0.048942547 0.095006123 0.82100004 4278190080
0.052454766 0.094851829 0.81966668 4278190080
0.05528523 0.094774686 0.81900007 4278190080
0.025847642 0.097646654 0.81900007 4278190080
0.028480271 0.097407319 0.81900007 4278190080
0.043079402 0.096928656 0.81900007 4278190080
0.046007466 0.097764999 0.82000005 4278190080
0.049581055 0.097725548 0.8196668 4278190080
0.052413274 0.097646646 0.81900007 4278190080
0.026565632 0.099800617 0.81900007 4278190080
0.046669353 0.099800617 0.81900007 4278190080
0.049541313 0.099800617 0.81900007 4278190080
0.052413274 0.099800617 0.81900007 4278190080
0.065656193 0.067820683 0.82300001 4278190080
0.067820683 0.067820683 0.82300001 4278190080
0.065656193 0.070706673 0.82300001 4278190080
0.067820683 0.069985174 0.82300001 4278190080
0.062770203 0.074314155 0.82300001 4278190080
0.064213201 0.074314155 0.82300001 4278190080
0.059403222 0.076719142 0.82300001 4278190080
0.061808214 0.076238148 0.82300001 4278190080
0.064213201 0.075757146 0.82300001 4278190080
0.056998234 0.080086127 0.82300001 4278190080
0.058441229 0.078643136 0.82300001 4278190080
0.054833744 0.082250617 0.82300001 4278190080
0.052669257 0.085136607 0.82300001 4278190080
0.054112248 0.085136607 0.82300001 4278190080
0.032467347 0.088744089 0.82300001 4278190080
0.033910342 0.088744089 0.82300001 4278190080
0.052669257 0.08802259 0.82300001 4278190080
0.054112248 0.08802259 0.82300001 4278190080
0.031986352 0.090668082 0.82300001 4278190080
0.034631841 0.09090858 0.82300001 4278190080
0.037277326 0.091149084 0.82300001 4278190080
0.040403813 0.091630079 0.82300001 4278190080
0.043289796 0.091630079 0.82300001 4278190080
0.051707257 0.090668082 0.82300001 4278190080
0.043289796 0.093073063 0.82300001 4278190080
0.046175785 0.093073063 0.82300001 4278190080
0.049061775 0.093073063 0.82300001 4278190080
0.051226262 0.093073063 0.82300001 4278190080
0.063937925 0.068282105 0.82566673 4278190080
0.055100255 0.071050324 0.82700002 4278190080
0.058000267 0.071050324 0.82700002 4278190080
0.061274964 0.071125887 0.82620013 4278190080
0.063937925 0.070694111 0.82566673 4278190080
0.05244191 0.074192002 0.82699996 4278190080
0.055100251 0.073950335 0.82700002 4278190080
0.057964765 0.073905185 0.82650006 4278190080
0.061186951 0.073626854 0.82499999 4278190080
0.064369246 0.073048249 0.82500005 4278190080
0.050025228 0.077575356 0.82700002 4278190080
0.052200243 0.076850355 0.82700002 4278190080
0.055033628 0.076756552 0.82600009 4278190080
0.057665091 0.076484777 0.82566673 4278190080
0.047125217 0.080475368 0.82700002 4278190080
0.049300224 0.079750367 0.82700002 4278190080
0.052136242 0.079653934 0.82600003 4278190080
0.054967001 0.079557501 0.82500005 4278190080
0.057136752 0.078834251 0.82500005 4278190080
0.037700176 0.083375379 0.82700002 4278190080
0.040600188 0.083375379 0.82700002 4278190080
0.0435002 0.083375379 0.82700002 4278190080
0.046641883 0.082892045 0.82699996 4278190080
0.049300224 0.082650378 0.82700002 4278190080
0.052074 0.082450502 0.82500005 4278190080
0.034758084 0.085446075 0.82600009 4278190080
0.037677821 0.085498229 0.82650006 4278190080
0.040575203 0.085498236 0.82650006 4278190080
0.043474339 0.085498236 0.82650006 4278190080
0.046371721 0.085498236 0.82650006 4278190080
0.04921037 0.085394785 0.82550001 4278190080
0.05135075 0.085343502 0.82500005 4278190080
0.034957085 0.087995417 0.82500005 4278190080
0.037609 0.088236511 0.82500005 4278190080
0.040502001 0.088236511 0.82500005 4278190080
0.043395001 0.088236503 0.82500005 4278190080
0.046315618 0.088289544 0.82550007 4278190080
0.049180999 0.088236503 0.82500005 4278190080
0.05135075 0.088236503 0.82500005 4278190080
0.03833225 0.090406254 0.82500005 4278190080
0.040502001 0.090406254 0.82500005 4278190080
0.043395001 0.090406254 0.82500005 4278190080
0.046287999 0.091129497 0.82500005 4278190080
0.049180999 0.091129497 0.82500005 4278190080
0.046512425 0.074129187 0.82900006 4278190080
0.051599726 0.073402427 0.82900006 4278190080
0.046512429 0.077036202 0.82900006 4278190080
0.0491772 0.076793954 0.82900006 4278190080
0.037791349 0.07994324 0.82900006 4278190080
0.040698372 0.07994324 0.82900006 4278190080
0.043605402 0.07994324 0.82900006 4278190080
0.046270177 0.079700984 0.82900006 4278190080
0.037791349 0.082123511 0.82900006 4278190080
0.040698372 0.082123511 0.82900006 4278190080
0.043605402 0.082123511 0.82900006 4278190080
0.045785673 0.082123511 0.82900006 4278190080
0.04082929 0.076553747 0.83166671 4278190080
0.043727841 0.076523654 0.83133334 4278190080
0.08492972 0.08492972 0.82100004 4285030501
0.082669668 0.089140348 0.82000005 4285032030
0.084785767 0.088240527 0.82099998 4285163370
0.082972117 0.091630079 0.82300001 4284900196
