# .PCD v0.7 - Point Cloud Data file format
VERSION 0.7
FIELDS x y z rgba
SIZE 4 4 4 4
TYPE F F F U
COUNT 1 1 1 1
WIDTH 1119
HEIGHT 1
VIEWPOINT 0 0 0 1 0 0 0
POINTS 1119
DATA ascii
0.058245737 -0.17870851 0.75500005 5857902
0.031770401 -0.17407532 0.75500005 5007229
0.034417935 -0.17407532 0.75500005 5139068
0.037341744 -0.1753659 0.75485718 4942462
0.04059615 -0.17600676 0.75419998 4480891
0.043626439 -0.17582777 0.75400001 2834268
0.046270464 -0.17582777 0.75400001 1912114
0.049575496 -0.17582776 0.75400001 4412002
0.052880533 -0.17582777 0.75400001 9872052
0.055543184 -0.1758863 0.75425005 7436926
0.058207162 -0.17594481 0.75450003 5726820
0.031991031 -0.17231029 0.75500005 5205377
0.034417935 -0.17208967 0.75500005 5271681
0.03789429 -0.17227527 0.7545715 5271942
0.04098241 -0.17252274 0.75400001 4743812
0.043626439 -0.17252274 0.75400001 2834514
0.046270471 -0.17252274 0.75400001 1977911
0.049386639 -0.17290047 0.75400007 3954277
0.052880537 -0.17252274 0.75400001 9674417
0.055524558 -0.17252274 0.75400001 6779257
0.058168586 -0.17252274 0.75400001 5792361
0.032432284 -0.17010403 0.75500005 5206399
0.034417935 -0.16944215 0.75500005 5337731
0.037065469 -0.16944215 0.75500005 5403526
0.040356476 -0.16936733 0.75466675 5403015
0.043626439 -0.16921771 0.75400001 3032145
0.046270467 -0.16921771 0.75400001 2043697
0.052880533 -0.16921771 0.75400001 9936306
0.055524558 -0.16921771 0.75400001 6515065
0.058168586 -0.16921771 0.75400001 5725294
0.034417935 -0.16679461 0.75500005 5402755
0.037065469 -0.16679461 0.75500005 5665672
0.040356472 -0.16672097 0.75466675 5927820
0.043626443 -0.16657367 0.75400001 3031372
0.046270467 -0.16657367 0.75400001 1911868
0.053541537 -0.16657367 0.75400001 9079962
0.055524558 -0.16657367 0.75400001 5659501
0.058168586 -0.16657367 0.75400001 5594481
0.034417935 -0.16348518 0.75500005 5204607
0.037065469 -0.16348518 0.75500005 5599879
0.040195603 -0.1635963 0.75475007 5664909
0.043626443 -0.16392964 0.75400001 2702400
0.046270467 -0.16392964 0.75400001 1319987
0.049575496 -0.16326864 0.75400001 6124168
0.052880533 -0.16392964 0.75400001 8817314
0.055686563 -0.16361931 0.75440001 5330533
0.058194306 -0.16334023 0.75433332 4936545
0.034417935 -0.16017577 0.75500005 4941179
0.037065469 -0.16017577 0.75500005 5138559
0.040540326 -0.16036813 0.7545715 5467021
0.043626443 -0.16062462 0.75400001 1980729
0.046270464 -0.16062462 0.75400001 1257015
0.049575496 -0.16062462 0.75400007 6519703
0.052880529 -0.16062461 0.75400001 8225949
0.055436712 -0.16048734 0.75459999 4936289
0.058245741 -0.16017577 0.75500005 4739168
0.034417935 -0.15752824 0.75500005 5072249
0.037065469 -0.15752824 0.75500005 5269373
0.040356476 -0.15745869 0.75466675 5334921
0.043626443 -0.15731959 0.75400001 2111292
0.046270467 -0.15731958 0.75400001 1780800
0.049575496 -0.15731959 0.75400001 7046814
0.052880533 -0.15731959 0.75400001 6909578
0.055598199 -0.15752824 0.75500005 4475739
0.058245737 -0.15752824 0.75500005 4541523
0.032432284 -0.15421882 0.75500005 4611179
0.034417935 -0.15488072 0.75500005 4611182
0.037065469 -0.1548807 0.75500005 4480628
0.040347561 -0.1547783 0.75450009 5204608
0.043626443 -0.15467556 0.75400001 1979708
0.046270467 -0.15467556 0.75400001 1976640
0.049575496 -0.15467556 0.75400001 8490655
0.052880533 -0.15467556 0.75400001 6185083
0.055598199 -0.15488072 0.75500005 4343640
0.058245737 -0.1548807 0.75500005 4607065
0.032432284 -0.15190223 0.75500005 3888227
0.034417935 -0.15190223 0.75500005 4479082
0.037689578 -0.15175165 0.75425005 4808570
0.04098241 -0.15170102 0.75400007 4676720
0.043532014 -0.15155937 0.75400007 1911866
0.046270464 -0.15137053 0.75400001 1845046
0.0497077 -0.15150273 0.75400007 8948126
0.052889407 -0.15172634 0.75412506 5922169
0.055561595 -0.15180206 0.75450009 3752531
0.034417935 -0.14826187 0.75500005 3558492
0.037677377 -0.14806549 0.75400001 5334135
0.04098241 -0.14806549 0.75400001 2899781
0.043626443 -0.14806549 0.75400001 662319
0.046270467 -0.14806549 0.75400001 1251354
0.049575496 -0.14806549 0.75400001 3620921
0.052880533 -0.14806549 0.75400001 6843526
0.055524558 -0.14806549 0.75400001 3620438
0.034417935 -0.14561434 0.75500005 4017513
0.037685413 -0.14545347 0.75416666 4346733
0.04098241 -0.14542148 0.75400001 1252379
0.043626443 -0.14542148 0.75400001 1909294
0.046270467 -0.14542148 0.75400001 2236964
0.049575496 -0.14542146 0.75400001 1383457
0.052880533 -0.14542148 0.75400001 6648691
0.055524558 -0.14542148 0.75400001 4082267
0.037065469 -0.14296681 0.75500005 2766407
0.040338647 -0.14284056 0.75433332 2040868
0.043626439 -0.14277744 0.75400001 1975338
0.046270467 -0.14277744 0.75400001 1975586
0.049575496 -0.14277744 0.75400001 1384488
0.052880533 -0.14277744 0.75400001 4344655
0.055524558 -0.14277744 0.75400001 6776436
0.037065469 -0.13965738 0.75500005 1778993
0.040362805 -0.13961589 0.75477785 2172982
0.043665018 -0.13959514 0.75466675 2107691
0.046311378 -0.13959514 0.75466675 2172716
0.049604528 -0.13955402 0.75444454 2106415
0.052927285 -0.13959514 0.75466675 1843750
0.037727352 -0.13634798 0.75500005 2501687
0.040374886 -0.13634798 0.75500005 2501686
0.043684304 -0.13634798 0.75500005 2043184
0.046331838 -0.13634798 0.75500005 2108724
0.049641252 -0.13634798 0.75500005 2304053
0.052950665 -0.13634798 0.75500005 1646898
0.037727352 -0.13370043 0.75500005 2174517
0.039492372 -0.13392107 0.75500005 2305846
0.053754568 -0.24355465 0.75700003 3751998
0.059063662 -0.23957284 0.75700003 4476250
0.061054569 -0.23890918 0.75700003 4017229
0.063045479 -0.23890918 0.75700003 5071449
0.065700024 -0.23293646 0.75700003 5199977
0.067027301 -0.23293646 0.75700003 4674887
0.070566691 -0.22674255 0.75700003 7043204
0.069681846 -0.22364557 0.75700003 8160144
0.028801832 -0.21780555 0.75700003 3164505
0.031854562 -0.2170092 0.75700003 3033686
0.065700024 -0.2170092 0.75700003 8097431
0.031854562 -0.21435463 0.75700003 3558492
0.033845469 -0.21568191 0.75700003 3361369
0.032075774 -0.21125765 0.75700003 3493470
0.032518197 -0.20838192 0.75700003 3755360
0.065700024 -0.20506373 0.75700003 8160144
0.031190924 -0.202741 0.75700003 4084327
0.065700024 -0.20240919 0.75700003 7634315
0.023227284 -0.199091 0.75700003 4150382
0.028536377 -0.199091 0.75700003 4150639
0.031190924 -0.199091 0.75700003 3954034
0.065700024 -0.199091 0.75700003 7436679
0.067690939 -0.199091 0.75700003 7371395
0.028536379 -0.19643645 0.75700003 4085100
0.031190924 -0.19643645 0.75700003 3888749
0.061718207 -0.19643645 0.75700003 7370125
0.064704567 -0.19610463 0.75700003 7239302
0.02986365 -0.19444555 0.75700003 3692397
0.031854562 -0.19378191 0.75700003 4349042
0.061718207 -0.19444555 0.75700003 7238025
0.065700024 -0.19378191 0.75700003 6844799
0.065368205 -0.1901319 0.75700003 6515830
0.031854562 -0.18382736 0.75700003 4677241
0.033845469 -0.18382736 0.75700003 5072514
0.032075774 -0.18205766 0.75700003 4546936
0.034287896 -0.18161523 0.75700003 4744574
0.034509107 -0.17851825 0.75700003 5138556
0.036500018 -0.17984553 0.75700003 4875382
0.034509107 -0.17586371 0.75700003 5270140
0.031633351 -0.16966976 0.75700003 5073277
0.02986365 -0.16657281 0.75700003 4940920
0.031854559 -0.16657281 0.75700003 5072763
0.02986365 -0.16325462 0.75700003 5071733
0.031854559 -0.16325462 0.75700003 5072504
0.031854562 -0.16060007 0.75700003 5007223
0.031854562 -0.15794553 0.75700003 4809334
0.031456381 -0.15462735 0.75700003 4479852
0.034509107 -0.13670915 0.75700003 2241089
0.036500018 -0.13670915 0.75700003 2043443
0.034509107 -0.1340546 0.75700003 2371378
0.036500018 -0.1340546 0.75700003 2305851
0.041366685 -0.13383339 0.75700003 2370615
0.027872741 -0.12940915 0.75700003 2771295
0.055745479 -0.12940915 0.75700003 1190457
0.029200014 -0.12741823 0.75700003 4545135
0.031854562 -0.12741823 0.75700003 2173243
0.034509107 -0.12741825 0.75700003 2634052
0.036500018 -0.12741825 0.75700003 2436930
0.029200014 -0.12476369 0.75700003 4083807
0.031854562 -0.12476368 0.75700003 2107963
0.034287896 -0.1249849 0.75700003 2699343
0.036500018 -0.12542732 0.75700003 2633292
0.029200016 -0.12144551 0.75700003 2963280
0.031854562 -0.12144551 0.75700003 2830915
0.034509107 -0.12078187 0.75700003 2896187
0.059063662 -0.12210914 0.75700003 3623259
0.060390934 -0.12210914 0.75700003 2965329
0.02986365 -0.11879096 0.75700003 2830142
0.031854562 -0.11879096 0.75700003 2961982
0.020681445 -0.21215159 0.76100004 4145700
0.022682874 -0.21148445 0.7610001 3493723
0.031273331 -0.21092865 0.75900006 3559014
0.020014301 -0.20748158 0.76100004 2116167
0.022682874 -0.20814872 0.76100004 4280931
0.01401001 -0.204813 0.76100004 15986929
0.015344297 -0.204813 0.76100004 13026501
0.019791918 -0.20540603 0.7610001 3165014
0.022682874 -0.20548016 0.7610001 4477802
0.019614015 -0.20267816 0.76100004 4149345
0.022667531 -0.20267877 0.76050007 4150122
0.019126488 -0.19955651 0.75985724 3955313
0.021957871 -0.199617 0.75900006 4347761
0.019324364 -0.1965846 0.76014298 4152942
0.02262326 -0.19695544 0.75900006 4216937
0.025284819 -0.19695544 0.75900006 4019551
0.019530004 -0.1936841 0.76071441 4745083
0.022632904 -0.19371295 0.75933337 4809846
0.025284819 -0.19362849 0.75900006 4283513
0.028445421 -0.19346215 0.75900006 4152181
0.020014301 -0.19080299 0.76100004 4943236
0.022682874 -0.19080299 0.76100004 5206406
0.025351446 -0.19080299 0.76100004 5008522
0.020014301 -0.18880156 0.76100004 5204868
0.022682874 -0.18880156 0.76100004 5403273
0.025351446 -0.18880156 0.76100004 5271958
0.020014301 -0.1847987 0.76100004 5402497
0.022905255 -0.18435395 0.76099998 5006983
0.025351446 -0.18413156 0.76100004 4875644
0.023350017 -0.18146297 0.76100004 4808305
0.025351446 -0.18146297 0.76100004 4939894
0.031273331 -0.18098608 0.75900006 4744050
0.023350017 -0.17879441 0.76100004 4742768
0.023350017 -0.17545871 0.76099998 4743285
0.023350017 -0.17212299 0.76100004 4743796
0.023350017 -0.14276868 0.76100004 3689046
0.023016445 -0.13909939 0.76100004 3557459
0.025351448 -0.13943295 0.7610001 3490392
0.028500654 -0.1395077 0.76050013 3095121
0.025334353 -0.13600826 0.76050007 3096143
0.028833697 -0.13617827 0.75985718 2243657
0.03193872 -0.13640495 0.75900006 4611435
0.025317257 -0.1339196 0.76000005 2899271
0.028611772 -0.13374339 0.75900006 2768719
0.03193872 -0.13374339 0.75900006 4018769
0.025284819 -0.12975104 0.75900006 2569548
0.029942552 -0.12975104 0.75900006 4741755
0.03193872 -0.12975104 0.75900006 2239556
0.03460028 -0.12975104 0.75900006 2436667
0.037261844 -0.12975104 0.75900006 2436410
0.040588792 -0.12975104 0.75900006 2108212
0.043915741 -0.12975104 0.75900006 2371644
0.053896591 -0.12975104 0.75900006 2241085
0.058554322 -0.12975104 0.75900006 4544616
0.061297413 -0.129922 0.76000005 2500912
0.025164718 -0.12742193 0.75940007 2766411
0.027280992 -0.12775488 0.75900006 1653072
0.037977204 -0.12792407 0.76000005 2108472
0.040028602 -0.12742437 0.7610001 2042679
0.043364316 -0.12742437 0.7610001 2305848
0.046833467 -0.12769124 0.76100004 2831426
0.049346689 -0.12736799 0.76066667 2830648
0.052433655 -0.12733869 0.75950009 2569020
0.055669963 -0.12704141 0.75985718 2107704
0.058451753 -0.12742193 0.75940007 5068645
0.061446797 -0.12755659 0.76020002 2369845
0.027280992 -0.12442794 0.75900006 3623265
0.034822077 -0.12354075 0.75900006 2764613
0.03745418 -0.12435709 0.76020002 2369852
0.047367178 -0.12475581 0.76100004 2568519
0.049368605 -0.12475581 0.76100004 2896693
0.052037179 -0.12408866 0.76100004 2569021
0.05527471 -0.12387124 0.75966674 2567750
0.058554322 -0.12442794 0.75900006 4214112
0.061256647 -0.1245099 0.75950009 2568004
0.064045757 -0.12408866 0.76100004 2303548
0.025317257 -0.12126054 0.76000005 2968152
0.027280992 -0.12110099 0.75900006 5004415
0.052037179 -0.12142009 0.76100004 2831420
0.055323809 -0.12131315 0.76033336 2569542
0.058332521 -0.1208792 0.75900006 3293015
0.061492037 -0.12098498 0.75966674 3029072
0.064045757 -0.12142009 0.76100004 2106933
0.025317257 -0.11859547 0.76000005 2772836
0.028345615 -0.11830635 0.75900006 3358800
0.03193872 -0.11777404 0.75900006 2831172
0.03460028 -0.11843942 0.75900006 2633269
0.052037179 -0.11941866 0.76100004 2962236
0.056040041 -0.11875151 0.76100004 2634049
0.058708616 -0.11875151 0.76100004 3620691
0.06137719 -0.11875151 0.76100004 3489104
0.063378617 -0.11875151 0.76100004 1779005
0.023350017 -0.11541579 0.76099998 2372414
0.025190666 -0.11556063 0.76020002 3426140
0.028402539 -0.11560604 0.75933343 2965320
0.031501483 -0.1151723 0.76050013 2633532
0.056040041 -0.11675008 0.76100004 2830916
0.058708616 -0.11608293 0.76100004 3816527
0.061510615 -0.11568265 0.76100004 3817553
0.063378617 -0.1154158 0.76100004 2239292
0.023350017 -0.11208008 0.76100004 3162194
0.025471199 -0.1124204 0.76060003 4082783
0.027872216 -0.1124204 0.76060009 3293523
0.031355739 -0.11208009 0.7610001 2830394
0.06204433 -0.11274723 0.76100004 4013650
0.063378617 -0.11274723 0.76100004 3290184
0.023350017 -0.10941151 0.76100004 2244688
0.025317257 -0.10926773 0.76000005 3229263
0.027984079 -0.10926773 0.76000011 2243418
0.031022167 -0.10974509 0.76100004 2107186
0.022905255 -0.10652056 0.76099998 7239548
0.025334351 -0.10667236 0.76050001 11052179
0.02800205 -0.10667236 0.76050007 10592170
0.030021451 -0.10674293 0.76100004 6189669
0.01870456 -0.21309838 0.76200002 12106157
0.019105371 -0.2109607 0.76200002 8222306
0.01402842 -0.20775422 0.76200002 14077637
0.01605352 -0.20869663 0.76300007 15722714
0.019038569 -0.20875627 0.76200002 3752518
0.01612791 -0.20584559 0.76200002 13618103
0.018036541 -0.20597284 0.76200002 3683344
0.01603248 -0.18437351 0.76200002 4942206
0.019038571 -0.1840395 0.76200002 5599367
0.022044659 -0.18370549 0.76200002 5335172
0.01603248 -0.18170144 0.76200002 5072506
0.019372581 -0.18170144 0.76200002 4809081
0.022044659 -0.18170144 0.76200002 4742769
0.016046507 -0.1785174 0.7626667 4679287
0.019372581 -0.17836134 0.76200002 4874358
0.022044659 -0.17836134 0.76200002 4676976
0.01603248 -0.17502123 0.76200002 4744056
0.019372581 -0.17502123 0.76200002 4809589
0.022044659 -0.17502123 0.76200002 4743541
0.01603248 -0.17234915 0.76200002 4479602
0.019380471 -0.17242426 0.76233339 4874610
0.022044659 -0.17234915 0.76200002 4744053
0.019380471 -0.16975158 0.76233339 5005940
0.022712678 -0.14562836 0.76200002 3493206
0.046093382 -0.12625578 0.76200002 2766397
0.046538729 -0.12402904 0.76200002 2896201
0.049433481 -0.1235837 0.76200002 2896443
0.046761401 -0.12157963 0.76200002 3027775
0.049433481 -0.12157963 0.76200002 3028026
0.043471951 -0.11837631 0.76288891 2567225
0.046651993 -0.11856811 0.76240003 2569023
0.049433481 -0.11890756 0.76200002 2896193
0.052105561 -0.11823954 0.76200002 2896187
0.054109618 -0.11890756 0.76200002 2568502
0.043870155 -0.11553591 0.76400006 2501444
0.046968292 -0.11548086 0.76319999 2829883
0.049454812 -0.11561743 0.76233339 2896445
0.052105565 -0.11556745 0.76200002 2896957
0.055254798 -0.11518573 0.76200002 3160397
0.058785759 -0.11423142 0.76200002 3225164
0.06078982 -0.11423142 0.76200002 4408410
0.064463928 -0.11556746 0.76200002 2304837
0.050232999 -0.11252192 0.76400006 2961210
0.052242316 -0.11252192 0.76400006 2961980
0.05544566 -0.11222736 0.76200002 2963019
0.058785759 -0.11222736 0.76200002 2897736
0.061235171 -0.11200469 0.76200002 3688277
0.064352594 -0.11200469 0.76200002 2438219
0.050232999 -0.10984284 0.76400006 2764347
0.05224232 -0.10984284 0.76400006 2896187
0.05544566 -0.10955528 0.76200002 3159882
0.058785759 -0.10955528 0.76200002 2964047
0.061457843 -0.10955528 0.76200002 4410720
0.064129919 -0.10955528 0.76200002 2631993
0.052376278 -0.10676187 0.76400006 2107441
0.05531567 -0.10671638 0.76285714 1976117
0.058785759 -0.1068832 0.76200002 3423559
0.061457843 -0.1068832 0.76200002 4147545
0.064297542 -0.10653744 0.76240003 1186349
0.055606175 -0.1038595 0.76254553 11578015
0.058785763 -0.10387711 0.76200002 14011309
0.061457843 -0.10387711 0.76200002 11974056
0.064083084 -0.10381111 0.76257145 3292482
0.016788168 -0.21153089 0.76600003 15196632
0.042977706 -0.11483106 0.76600003 2173245
0.043425508 -0.1130686 0.76680005 2567738
0.046615697 -0.11271145 0.76620001 2566959
0.043033812 -0.10960174 0.76700002 2567988
0.046375081 -0.10955411 0.76666671 2304306
0.042361412 -0.10601559 0.76700002 2369586
0.043820184 -0.10629203 0.76900005 2436135
0.067512102 -0.21775962 0.75500005 8358553
0.035852015 -0.2143399 0.75500005 3164245
0.049681984 -0.12617502 0.75959998 2436666
0.050144259 -0.15569882 0.75788897 3095361
0.048508376 -0.14896846 0.75749999 3555403
0.047922984 -0.21416616 0.75400001 2306624
0.052880533 -0.21416616 0.75400001 4281194
0.045422293 -0.22209737 0.75350004 4674652
0.045052782 -0.22084072 0.75316674 3688791
0.04851298 -0.21882302 0.75300002 3425102
0.059756342 -0.12400461 0.76012504 2435897
0.032850016 -0.12609097 0.75700003 3227472
0.036500018 -0.12542732 0.75700003 2633292
0.039555199 -0.23535344 0.75200003 2046001
0.040873706 -0.23337568 0.75200003 3095619
0.040765002 -0.23275502 0.75000006 3555143
0.054718029 -0.22612388 0.75200003 4475987
0.054058775 -0.22480538 0.75200003 4804951
0.045158856 -0.1954686 0.75200003 2439496
0.046147734 -0.18920571 0.75200003 1783114
0.046806987 -0.18854645 0.75200003 2047570
0.043715537 -0.17089871 0.75587499 4938348
0.048005246 -0.17083955 0.75566667 5397870
0.039225139 -0.16648383 0.75550002 2635330
0.048817769 -0.15147105 0.75600004 3556691
0.051024627 -0.16612636 0.75600004 5069672
0.058359116 -0.19063665 0.75641674 6975868
0.043578662 -0.21459748 0.75725007 10659490
0.032763228 -0.20816231 0.75500005 3361890
0.044005334 -0.10887599 0.76686668 3292487
0.041540414 -0.19799298 0.75350004 2702416
0.047224499 -0.19548526 0.75325 4216681
0.050860256 -0.1953288 0.75325006 5202033
0.043742452 -0.11258417 0.76366669 2238255
0.05384399 -0.11237464 0.76300001 2962499
0.058785759 -0.11222736 0.76200002 2897736
0.049444001 -0.18722792 0.75200003 2637912
0.048125494 -0.18195392 0.75200003 1847086
0.04153296 -0.17997615 0.75200003 3690098
0.040356476 -0.2090628 0.75466675 3162450
0.043769777 -0.21015564 0.75800008 5859175
0.031273331 -0.21092865 0.75900006 3559014
0.04353527 -0.10682885 0.76400006 1712424
0.052376278 -0.10676187 0.76400006 2107441
0.044973582 -0.17874269 0.75166672 2307394
0.061508249 -0.21284984 0.75750005 8292761
0.035777643 -0.21156685 0.75650001 3162956
0.050270695 -0.2125572 0.75766677 5332583
0.033031192 -0.20532429 0.75750005 2833998
0.04171297 -0.20532177 0.75633341 4083807
0.056949049 -0.19760427 0.75742865 7437448
0.028691987 -0.19512503 0.75708342 4283248
0.032970414 -0.19509789 0.75657147 4019821
0.057297841 -0.195265 0.75700003 4610663
0.061058991 -0.19514734 0.75762498 4148828
0.044865757 -0.11113445 0.76366669 2437952
0.043392248 -0.10821177 0.76295245 2174265
0.042059511 -0.20718917 0.75787508 6058099
0.043626443 -0.20524257 0.75400007 2833221
0.056393623 -0.19252148 0.75422502 6320770
0.055499576 -0.18554753 0.75350004 7109511
0.037207771 -0.20100228 0.75721431 6058369
0.04098241 -0.199624 0.75400001 3230300
0.044948451 -0.199624 0.75400001 2373697
0.051238682 -0.19966814 0.75416666 4086635
0.056855887 -0.19965699 0.754125 9214378
0.064543433 -0.19530308 0.75723809 3624799
0.060121801 -0.10955528 0.76200002 3687255
0.064129919 -0.10955528 0.76200002 2631993
0.064297542 -0.10653744 0.76240003 1186349
0.015344297 -0.204813 0.76100004 13026501
0.050762504 -0.16514295 0.75200003 7898258
0.044169974 -0.15228751 0.75200003 1714491
0.031703573 -0.2066581 0.75750005 3624027
0.032432284 -0.20275694 0.75500005 3953510
0.045771647 -0.20254982 0.75650001 4412770
0.062155444 -0.20276013 0.75750005 4674659
0.041756511 -0.20118697 0.75700009 6188930
0.055827782 -0.19976571 0.75800008 5202803
0.042708129 -0.19911577 0.75775003 5006451
0.061675034 -0.19240576 0.75750005 4150367
0.064498119 -0.19223896 0.75750005 4150881
0.040454771 -0.17734934 0.75787503 5794168
0.043303829 -0.17733696 0.75750005 5596793
0.03441019 -0.20271206 0.7548334 3755874
0.037682731 -0.20251806 0.75411117 3557725
0.055573944 -0.19649225 0.75466675 10068144
0.059790131 -0.19679998 0.75500005 8093839
0.049304504 -0.19522369 0.75487506 5925243
0.039433651 -0.1936937 0.7543959 3888235
0.049575496 -0.19367494 0.75400007 1982541
0.052892368 -0.19371748 0.75416666 7769247
0.05692197 -0.19326994 0.75500005 8818074
0.061555147 -0.19313756 0.75500005 7172740
0.065857396 -0.192939 0.75500005 6713469
0.0334193 -0.1902598 0.75487506 4874365
0.038714148 -0.19059074 0.75487506 4020594
0.047922984 -0.19103092 0.75400001 1784395
0.052880533 -0.1903699 0.75400001 8229800
0.052880533 -0.18772589 0.75400001 8361383
0.055524558 -0.1877259 0.75400001 8622491
0.035079818 -0.18334168 0.75500005 5073268
0.038375866 -0.18328097 0.75475001 5006964
0.051558517 -0.18309884 0.75400001 7109256
0.05690378 -0.18328097 0.75475001 7304840
0.047986545 -0.1826798 0.75500005 5466231
0.02335009 -0.13892938 0.76125002 8029322
0.019614015 -0.20267816 0.76100004 4149345
0.01922749 -0.17715986 0.76350009 4613242
0.020014301 -0.18880156 0.76100004 5204868
0.023350017 -0.17879441 0.76100004 4742768
0.046688203 -0.16357505 0.75900006 4675685
0.025351446 -0.18413156 0.76100004 4875644
0.043425102 -0.19067471 0.75433332 2901852
0.055580009 -0.19055951 0.75475007 9016480
0.059900448 -0.19062242 0.75500005 6976386
0.064202689 -0.19062242 0.75500005 6976127
0.049972191 -0.18962958 0.75500005 5728629
0.035741702 -0.18797487 0.75500005 4744053
0.041881293 -0.18769872 0.75433338 3428452
0.046925206 -0.17424822 0.75625008 4611184
0.040447868 -0.16929343 0.75750005 5662331
0.041599493 -0.17273442 0.75633341 5136759
0.051123988 -0.17151575 0.75655556 3952480
0.036620341 -0.16651335 0.75749999 5597820
0.049320117 -0.16422744 0.75750011 4610149
0.037341744 -0.1753659 0.75485718 4942462
0.042111292 -0.17591727 0.75409997 3624811
0.04792298 -0.17582777 0.75400001 3161930
0.054211859 -0.17585704 0.754125 8621721
0.036135763 -0.15752064 0.75683331 3558238
0.025351448 -0.13943295 0.7610001 3490392
0.038968671 -0.15611026 0.75687504 3294035
0.052622728 -0.14383301 0.75692862 4280935
0.058554322 -0.12442794 0.75900006 4214112
0.061256647 -0.1245099 0.75950009 2568004
0.044470232 -0.10606967 0.76692855 2172205
0.05690378 -0.17864934 0.75475001 6778746
0.031991031 -0.17231029 0.75500005 5205377
0.054202549 -0.17252274 0.75400001 8226709
0.059861869 -0.17230619 0.75450003 5528938
0.055524558 -0.16657367 0.75400001 5659501
0.059861872 -0.16668415 0.75450003 5396842
0.051228017 -0.16359913 0.75400001 7437973
0.055686563 -0.16361931 0.75440001 5330533
0.037065469 -0.16017577 0.75500005 5138559
0.042083383 -0.16049638 0.75428575 3691107
0.046270464 -0.16062462 0.75400001 1257015
0.041987002 -0.15472692 0.75425005 3559262
0.046270467 -0.15467556 0.75400001 1976640
0.043532014 -0.15155937 0.75400007 1911866
0.046270464 -0.15137053 0.75400001 1845046
0.039329894 -0.14806549 0.75400001 4084062
0.024350733 -0.18146297 0.76100004 4874099
0.03193872 -0.12975104 0.75900006 2239556
0.035931062 -0.12975104 0.75900006 2436410
0.025164718 -0.12742193 0.75940007 2766411
0.032629099 -0.12783948 0.75950003 1847876
0.043364316 -0.12742437 0.7610001 2305848
0.048090078 -0.12752962 0.76083338 2830909
0.052433655 -0.12733869 0.75950009 2569020
0.05527471 -0.12387124 0.75966674 2567750
0.064045757 -0.12408866 0.76100004 2303548
0.025317257 -0.12126054 0.76000005 2968152
0.025317257 -0.11859547 0.76000005 2772836
0.028345615 -0.11830635 0.75900006 3358800
0.052037179 -0.11941866 0.76100004 2962236
0.057374328 -0.11875151 0.76100004 3094602
0.062377904 -0.11875151 0.76100004 2634054
0.042884428 -0.10837283 0.76933336 3686479
0.048973374 -0.12618768 0.76700002 8685965
0.043033812 -0.10960174 0.76700002 2567988
0.059832901 -0.10561477 0.76612502 1648173
0.052880533 -0.18111582 0.75400001 9674419
0.033425108 -0.16977309 0.75500005 5271937
0.038710974 -0.16940475 0.7548334 5403270
0.046270467 -0.16921771 0.75400001 2043697
0.052880533 -0.16921771 0.75400001 9936306
0.044948455 -0.16657367 0.75400001 2438724
0.053541537 -0.16657367 0.75400001 9079962
0.034417935 -0.16348518 0.75500005 5204607
0.038630538 -0.16354075 0.75487506 5599626
0.044948455 -0.16392964 0.75400001 1978425
0.034417935 -0.16017577 0.75500005 4941179
0.035741702 -0.15752824 0.75500005 5138043
0.035741702 -0.1548807 0.75500005 4545905
0.052880533 -0.15467556 0.75400001 6185083
0.056921966 -0.1548807 0.75500005 4475224
0.032432284 -0.15190223 0.75500005 3888227
0.0497077 -0.15150273 0.75400007 8948126
0.054225501 -0.1517642 0.75431257 4804454
0.043626443 -0.14806549 0.75400001 662319
0.046270467 -0.14806549 0.75400001 1251354
0.048142835 -0.12604845 0.76371431 2963781
0.052870013 -0.12015987 0.76400006 2174002
0.046518125 -0.11530577 0.76300001 4279394
0.057065777 -0.11513128 0.76287502 3030090
0.053896591 -0.12975104 0.75900006 2241085
0.063260563 -0.11950544 0.76200002 2700866
0.051989313 -0.10750874 0.76400006 1645344
0.056767967 -0.11977956 0.76445007 5726052
0.026384549 -0.13329501 0.76300001 6514020
0.023350017 -0.11541579 0.76099998 2372414
0.025190666 -0.11556063 0.76020002 3426140
0.047971204 -0.23819888 0.75475001 3029566
0.054274432 -0.238278 0.75500005 4080972
0.058025111 -0.23805737 0.75500005 4673368
0.043781437 -0.2173218 0.75440001 2767172
0.047922984 -0.2174712 0.75400007 2765889
0.054151349 -0.2173965 0.75419998 4938093
0.059807628 -0.21730968 0.75487506 7373456
0.064643942 -0.21731837 0.75500005 8030868
0.050232563 -0.15876345 0.75800002 4215648
0.052501813 -0.15265748 0.75750005 2701895
0.040420908 -0.15156865 0.75700003 4674400
0.045068558 -0.15153666 0.75675005 4411742
0.04802008 -0.1503571 0.75750005 4675680
0.044802047 -0.14070413 0.75750005 4609895
0.049802557 -0.14108986 0.75774997 4015704
0.048020951 -0.14014788 0.75800002 3621708
0.038428243 -0.13788828 0.75650001 6714767
0.051052447 -0.13646443 0.75722921 3622491
0.038975723 -0.20523995 0.75866669 5269623
0.058390819 -0.19952123 0.75950003 6780547
0.030081725 -0.12978794 0.75908333 2372410
0.033452235 -0.12885763 0.75866669 2371642
0.043626443 -0.15731959 0.75400001 2111292
0.046270467 -0.15731958 0.75400001 1780800
0.049575496 -0.14806549 0.75400001 3620921
0.052880533 -0.14806549 0.75400001 6843526
0.03933391 -0.14543748 0.75408334 2766660
0.044948455 -0.14542148 0.75400001 2040361
0.049575496 -0.14542146 0.75400001 1383457
0.036072642 -0.14296681 0.75500005 3885667
0.040338647 -0.14284056 0.75433332 2040868
0.044948451 -0.14277744 0.75400001 1975334
0.051228017 -0.14277744 0.75400001 2831675
0.051265907 -0.13957459 0.75455564 1975082
0.039051119 -0.13634798 0.75500005 2501686
0.045008071 -0.13634798 0.75500005 2043186
0.051295958 -0.13634798 0.75500005 1975347
0.053091008 -0.14161579 0.75375003 3884363
0.043256052 -0.14299397 0.75350004 4348009
0.048052732 -0.18921039 0.75500005 2372155
0.047186729 -0.18825527 0.75450003 8620179
0.050366689 -0.23577993 0.75550002 10791859
0.054063447 -0.2340662 0.75550002 5466216
0.057981417 -0.23213126 0.75550002 5070171
0.028801832 -0.21780555 0.75700003 3164505
0.033111483 -0.22450534 0.75550002 5729136
0.048064541 -0.22543895 0.75562501 4543581
0.050700262 -0.22432892 0.75600004 4871779
0.053568576 -0.22338876 0.75600004 5200998
0.065936878 -0.22328159 0.75583339 6385271
0.0494215 -0.22121209 0.75575 7306628
0.042512558 -0.21964352 0.75550002 4347233
0.057400551 -0.21899059 0.75562501 5725032
0.051909022 -0.21843213 0.75556248 5069416
0.054138169 -0.21764407 0.75556248 5397868
0.065972954 -0.21771392 0.75575006 6384758
0.042193852 -0.21418884 0.75550008 4411745
0.058847852 -0.19676623 0.75550002 4542304
0.043867141 -0.19505192 0.75568748 5070707
0.037550896 -0.18770178 0.75550002 3558232
0.048765443 -0.18765438 0.75550002 4016472
0.04278256 -0.18593198 0.75580001 4675176
0.040102385 -0.18152384 0.75591671 3426131
0.035100468 -0.17976063 0.75555563 2900821
0.037369583 -0.17972755 0.75590003 3821410
0.043370016 -0.11430857 0.76700002 2765635
0.031269092 -0.12448361 0.76366669 4082264
0.053785257 -0.12901913 0.76480007 3753045
0.031355739 -0.11208009 0.7610001 2830394
0.026963711 -0.10813282 0.76100004 4673367
0.054785971 -0.12112422 0.76500005 3885896
0.018904965 -0.21202955 0.76200002 10131335
0.014707837 -0.18152553 0.7626667 4479077
0.014720987 -0.17833856 0.76333338 4151908
0.020708621 -0.17836134 0.76200002 4742771
0.017702531 -0.17502123 0.76200002 4744054
0.022044659 -0.17502123 0.76200002 4743541
0.054807741 -0.12163281 0.76233339 2699064
0.043684304 -0.24291119 0.75500005 9544628
0.047986545 -0.24291119 0.75500005 2898247
0.053924866 -0.24283075 0.75475001 3489078
0.058168586 -0.24258946 0.75400001 5067546
0.04853154 -0.23072609 0.7548334 10595754
0.03172832 -0.2293693 0.75400001 3162184
0.04098241 -0.2287083 0.75400001 3554116
0.044948451 -0.2293693 0.75400001 3029568
0.051228017 -0.2293693 0.75400007 3882826
0.062868968 -0.2291301 0.75408334 6055282
0.067512102 -0.2296735 0.75500005 6056567
0.046497308 -0.2275224 0.75500005 9870741
0.02691659 -0.22625381 0.75500005 9739163
0.033050332 -0.22606429 0.75400001 3294021
0.038695626 -0.2262142 0.75450003 3226948
0.043654934 -0.22621419 0.75450003 2767685
0.046270467 -0.22606428 0.75400001 2570304
0.030094653 -0.22356841 0.75450003 3556433
0.046270467 -0.22342026 0.75400001 2438972
0.049575496 -0.22342026 0.75400001 2831941
0.063169092 -0.22356841 0.75450003 6977927
0.067512102 -0.22371659 0.75500005 7897225
0.072012901 -0.2236504 0.75500005 8620943
0.034221824 -0.16234 0.75890005 4541269
0.056409113 -0.24156374 0.75700003 4081228
0.04031074 -0.20928764 0.75983334 4872014
0.019038571 -0.1840395 0.76200002 5599367
0.019468356 -0.18583317 0.75999999 4281706
0.023958424 -0.18575764 0.75966668 4479856
0.038039006 -0.18361433 0.76050007 4281706
0.040469449 -0.18293633 0.76008338 6056574
0.050602295 -0.19228873 0.75700003 5662844
0.050436385 -0.18913645 0.75700003 5662070
0.031854562 -0.18382736 0.75700003 4677241
0.037699517 -0.16428755 0.76050007 4348010
0.047560625 -0.1644713 0.75700003 4806762
0.031854559 -0.16325462 0.75700003 5072504
0.061607748 -0.21290287 0.75550002 5989485
0.063925214 -0.21290287 0.75550002 6121583
0.04967149 -0.20494582 0.75550002 4543077
0.045179456 -0.20395036 0.75550002 4808047
0.061374702 -0.20383975 0.75550002 6056314
0.06393376 -0.20402533 0.75575006 6385021
0.039674588 -0.20177387 0.75583333 7307403
0.030817684 -0.20170698 0.75575006 6978174
0.034372345 -0.22342026 0.75400001 3294278
0.033452284 -0.19805676 0.75575006 4019041
0.045064282 -0.19792812 0.75587505 4017755
0.036796331 -0.19033769 0.75600004 4674398
0.038767513 -0.19026405 0.75575 3820633
0.034864858 -0.1893094 0.75554997 3821665
0.052280102 -0.18919158 0.75559998 3687753
0.044718333 -0.18585816 0.75600004 5070701
0.060374968 -0.18594262 0.75564289 5661295
0.045127291 -0.15031371 0.75700003 3951448
0.052588895 -0.17279334 0.75633335 5266796
0.01603248 -0.18437351 0.76200002 4942206
0.05708503 -0.12685682 0.76240003 2502714
0.031743661 -0.12399924 0.76250005 2569024
0.046538729 -0.12402904 0.76200002 2896201
0.04280895 -0.11460663 0.76900005 2765636
0.042359512 -0.10910103 0.76900005 2831426
0.059662867 -0.10617967 0.76900005 2172454
0.048687875 -0.20177755 0.75600004 6124159
0.064864568 -0.22040714 0.75500005 7701390
0.04585221 -0.2173965 0.75420004 2766402
0.045835424 -0.24291119 0.75500005 6188669
0.053924866 -0.24283075 0.75475001 3489078
0.056979489 -0.21735309 0.75453752 6122878
0.045775682 -0.18276387 0.75762504 5794681
0.040752947 -0.15190923 0.75850004 3820121
0.046461359 -0.15211307 0.75725007 3688019
0.046544321 -0.15094689 0.75712502 4543583
0.063169092 -0.22356841 0.75450003 6977927
0.069762498 -0.22368349 0.75500005 8226188
0.047655597 -0.22073808 0.75500005 9410203
0.04853154 -0.23072609 0.7548334 10595754
0.036355365 -0.2290388 0.75400001 3358022
0.044948451 -0.2293693 0.75400001 3029568
0.063925214 -0.21290287 0.75550002 6121583
0.062654227 -0.20393254 0.75562501 6187899
0.035246134 -0.20174041 0.75579166 7110020
0.033912316 -0.21073851 0.75487506 3623763
0.045064282 -0.19792812 0.75587505 4017755
0.037781924 -0.19030087 0.75587499 4214619
0.058390819 -0.19952123 0.75950003 6780547
0.043572478 -0.1892505 0.75557494 3754581
0.044718333 -0.18585816 0.75600004 5070701
0.030081725 -0.12978794 0.75908333 2372410
0.033452235 -0.12885763 0.75866669 2371642
0.047224499 -0.19548526 0.75325 4216681
0.040469449 -0.18293633 0.76008338 6056574
0.023350017 -0.11541579 0.76099998 2372414
0.039707594 -0.16386296 0.75700003 4939633
0.042751014 -0.15635243 0.7585417 4346977
0.058482978 -0.18955122 0.75700003 6056052
0.056393623 -0.19252148 0.75422502 6320770
0.052880533 -0.14806549 0.75400001 6843526
0.044603556 -0.14716479 0.75475001 3753047
0.03933391 -0.14543748 0.75408334 2766660
0.046353675 -0.19327492 0.75535715 6583940
0.049304504 -0.19522369 0.75487506 5925243
0.044504575 -0.19368431 0.75419796 2902620
0.052892368 -0.19371748 0.75416666 7769247
0.047504447 -0.12261674 0.7626667 2437177
0.04787413 -0.13801211 0.75460422 3619658
0.048093565 -0.19964607 0.75408334 3230038
0.06069966 -0.19748004 0.75568151 6386820
0.049671203 -0.1106932 0.76216674 1910324
0.043425102 -0.19067471 0.75433332 2901852
0.057740226 -0.19059096 0.75487506 7963537
0.046353675 -0.19327492 0.75535715 6583940
0.060121801 -0.10955528 0.76200002 3687255
0.064297542 -0.10653744 0.76240003 1186349
0.064202689 -0.19062242 0.75500005 6976127
0.0494215 -0.22121209 0.75575 7306628
0.065972954 -0.21771392 0.75575006 6384758
0.04869847 -0.19370089 0.75418234 5335933
0.055524558 -0.1877259 0.75400001 8622491
0.036727842 -0.18331133 0.75487506 5007220
0.051558517 -0.18309884 0.75400001 7109256
0.047986545 -0.1826798 0.75500005 5466231
0.042193852 -0.21418884 0.75550008 4411745
0.051357497 -0.19590908 0.75559378 4806505
0.04315817 -0.18767807 0.75550002 3754584
0.032213271 -0.11899676 0.76350009 4344661
0.018904965 -0.21202955 0.76200002 10131335
0.014720987 -0.17833856 0.76333338 4151908
0.014874623 -0.17519352 0.76275003 5532022
0.022044659 -0.17502123 0.76200002 4743541
0.049304504 -0.19522369 0.75487506 5925243
0.05690378 -0.18328097 0.75475001 7304840
0.042111292 -0.17591727 0.75409997 3624811
0.051067419 -0.1758424 0.75406253 5858929
0.036235027 -0.17974409 0.75572783 3361115
0.020708621 -0.17836134 0.76200002 4742771
0.054838337 -0.14392781 0.75698936 4674406
0.055544943 -0.16514164 0.75425005 6384511
0.036377501 -0.14816368 0.75450003 3820891
0.05490125 -0.15477812 0.75450003 5330025
0.032432284 -0.15190223 0.75500005 3888227
0.0519666 -0.15163347 0.75415635 6843522
0.032763228 -0.20816231 0.75500005 3361890
0.052433655 -0.12733869 0.75950009 2569020
0.025726162 -0.14519604 0.76550001 3359567
0.055544943 -0.16514164 0.75425005 6384511
0.073204294 -0.2235842 0.75500005 9739418
0.070821516 -0.22106904 0.75500005 8620697
0.072807163 -0.22106904 0.75500005 8227484
0.066850215 -0.21180266 0.75500005 8161678
0.066850215 -0.20849325 0.75500005 7832972
0.066850215 -0.20518383 0.75500005 8160394
0.066850215 -0.20319819 0.75500005 8094599
0.067512102 -0.1912843 0.75500005 6582132
0.061366044 -0.17502086 0.75500005 5200230
0.061555151 -0.17208965 0.75500005 5265771
0.061555147 -0.16944213 0.75500005 5331051
0.061555158 -0.16679461 0.75500005 5199459
0.064202689 -0.16679461 0.75500005 4739424
0.061389677 -0.16365066 0.75500005 4739423
0.060672641 -0.1603964 0.75500005 4607837
0.058025111 -0.15223317 0.75500005 4016209
0.060231384 -0.15289505 0.75500005 4147537
0.058025111 -0.14804123 0.75500005 3950161
0.058245737 -0.14561434 0.75500005 3490127
0.058207601 -0.14287212 0.75450003 3027015
0.055536687 -0.13950293 0.75416666 6448496
0.057857588 -0.13984959 0.75424999 3158604
0.055579573 -0.13630261 0.75475007 5003362
0.057545714 -0.13625723 0.75450003 4805466
0.05493632 -0.13436233 0.75500005 3619657
0.072336391 -0.22630012 0.75700003 8028547
0.070124269 -0.22010617 0.75700003 8817563
0.073000029 -0.21966374 0.75700003 8752030
0.067690939 -0.2170092 0.75700003 8490392
0.070345484 -0.21767282 0.75700003 8885409
0.072336391 -0.21833646 0.75700003 8950690
0.067823663 -0.21462008 0.75700003 8424597
0.070345484 -0.21435463 0.75700003 8687261
0.068354577 -0.21103644 0.75700003 8227725
0.070345484 -0.21103644 0.75700003 8293266
0.068354577 -0.20838192 0.75700003 7832718
0.070345484 -0.20838192 0.75700003 8292498
0.068022758 -0.20539555 0.75700003 8094344
0.070345484 -0.20572737 0.75700003 7700878
0.067785747 -0.20259878 0.75700003 7700354
0.067690939 -0.19643645 0.75700003 7043203
0.069681846 -0.19643645 0.75700003 7043455
0.067690939 -0.19444555 0.75700003 6320509
0.069681846 -0.19378191 0.75700003 6582652
0.067690939 -0.18980008 0.75700003 6384496
0.069681846 -0.19046372 0.75700003 6384243
0.064372748 -0.18780917 0.75700003 6252915
0.067690939 -0.18780917 0.75700003 6186604
0.063045479 -0.18382736 0.75700003 6055032
0.06127578 -0.18161523 0.75700003 5989493
0.063045479 -0.18183646 0.75700003 5923444
0.061187297 -0.17878373 0.75700003 5857391
0.063377298 -0.17818645 0.75700003 5528682
0.064815171 -0.17497885 0.75700003 5133930
0.065036386 -0.17254554 0.75700003 5068389
0.064815171 -0.17011219 0.75700003 5068391
0.065257601 -0.16568796 0.75700003 4541791
0.063709117 -0.16325462 0.75700003 4607836
0.061718207 -0.15993644 0.75700003 4279389
0.063045479 -0.1612637 0.75700003 4410205
0.061054572 -0.15794553 0.75700003 4542033
0.061149377 -0.15443774 0.75700003 4409427
0.059063662 -0.15130916 0.75700003 4015701
0.060390934 -0.15130916 0.75700003 4015701
0.059063662 -0.14931825 0.75700003 4147287
0.060390934 -0.14865461 0.75700003 3752526
0.060390934 -0.14666371 0.75700003 3095617
0.053754568 -0.13339098 0.75700003 1976886
0.05596669 -0.13383339 0.75700003 3948864
0.057736389 -0.13339098 0.75700003 6184526
0.075189069 -0.22024409 0.75900006 8684170
0.073325977 -0.21731636 0.75900006 8819612
0.075671241 -0.21801165 0.76050007 8818851
0.079390056 -0.21682158 0.76100004 13818091
0.073290214 -0.21453787 0.76000011 8951196
0.076054342 -0.21482015 0.76100004 8294809
0.079390056 -0.21482016 0.7610001 11909041
0.082058631 -0.21415301 0.76100004 14605757
0.073353916 -0.21139123 0.76066667 8490138
0.076054342 -0.21148443 0.7610001 8292761
0.079390056 -0.21148443 0.7610001 10263198
0.082058631 -0.21148443 0.76099998 14867659
0.073544443 -0.20818818 0.76033336 7964049
0.076054342 -0.20814872 0.76100004 8160145
0.079390056 -0.20814872 0.7610001 8292233
0.082503401 -0.20792633 0.76099998 13225397
0.070531346 -0.20471834 0.75900006 7635085
0.073290408 -0.20564196 0.76077783 7634827
0.076054342 -0.2061473 0.76100004 7962763
0.079390056 -0.20548014 0.7610001 7896964
0.070531346 -0.20227857 0.75900006 7699846
0.073385768 -0.20281158 0.76100004 7371396
0.079390056 -0.20281155 0.7610001 6714241
0.070531346 -0.19961701 0.75900006 7436678
0.073385768 -0.19947587 0.7610001 7108998
0.079223275 -0.19964264 0.7610001 6451579
0.071196735 -0.19695544 0.75900006 7109247
0.073385768 -0.19614014 0.76100004 6713215
0.075387195 -0.195473 0.76100004 6712444
0.079319336 -0.19641191 0.76033336 6186352
0.071196735 -0.19362849 0.75900006 6516602
0.073385768 -0.19347157 0.76100004 6384248
0.075831957 -0.19324918 0.76099998 6383735
0.079489745 -0.19353881 0.76014286 5661552
0.071196735 -0.19030155 0.75900006 6318193
0.073385768 -0.19080299 0.76100004 6186868
0.075831957 -0.19102538 0.76099998 5988719
0.079723626 -0.19113657 0.76100004 5661547
0.082725778 -0.19080299 0.76100004 6518393
0.070531346 -0.18830538 0.75900006 6251112
0.073385768 -0.18880156 0.76100004 6250612
0.076054342 -0.18880156 0.76100004 5922933
0.065208226 -0.18431303 0.75900006 5791858
0.068048619 -0.18413156 0.76100004 5529191
0.070050053 -0.18413156 0.76100004 5528677
0.074052908 -0.1847987 0.76100004 5791346
0.075387195 -0.1847987 0.76100004 5659758
0.065208219 -0.18165147 0.75900006 5529195
0.068048619 -0.18146297 0.76100004 5463141
0.070717193 -0.18146297 0.76100004 5266269
0.065430023 -0.17854631 0.75900006 5199722
0.067914933 -0.17844245 0.75950003 5134182
0.070717193 -0.17879441 0.76100004 4740970
0.065873615 -0.17632835 0.75900006 5133930
0.067869782 -0.17566296 0.75900006 4870756
0.070717193 -0.17545868 0.7610001 4673881
0.067899883 -0.17241113 0.75933337 4871006
0.070717193 -0.17212299 0.76100004 4869973
0.065873615 -0.16900906 0.75900006 4673632
0.067960083 -0.16923173 0.76000011 4607836
0.070494808 -0.16967678 0.76099998 4278872
0.067960083 -0.16656667 0.76000005 4083033
0.070050053 -0.16678584 0.76100004 4213592
0.065430023 -0.16346414 0.75900006 4476502
0.067381479 -0.16345011 0.76100004 4345177
0.064010523 -0.16009286 0.75900006 4279386
0.066714332 -0.16011441 0.76100004 4213590
0.063877448 -0.15703204 0.75900006 4475986
0.067381479 -0.15744583 0.7610001 4278864
0.070050053 -0.15744582 0.76100004 3621703
0.063877441 -0.15414868 0.75900006 4213071
0.067214698 -0.15461047 0.7610001 4081998
0.061881274 -0.15170893 0.75900006 4015947
0.06417919 -0.15170839 0.76100004 3884874
0.066714332 -0.15144154 0.7610001 3819086
0.061881274 -0.14838198 0.75900006 3620678
0.06381239 -0.14827153 0.75980008 3686215
0.066714332 -0.14810583 0.76100004 3751239
0.061215885 -0.14505503 0.75900006 3093820
0.064045757 -0.14543724 0.76100004 3356991
0.066047192 -0.14543724 0.76100004 3225408
0.061256647 -0.14248683 0.75950009 2698818
0.064045757 -0.14276868 0.76100004 3093827
0.066047192 -0.14343582 0.76100004 2897984
0.059219711 -0.13973191 0.75900006 2173493
0.061377186 -0.13943295 0.7610001 2436413
0.063378617 -0.13943297 0.76099998 2896710
0.058887012 -0.13607225 0.75900006 3818575
0.06137719 -0.13609724 0.76100004 2371645
0.063378617 -0.13609724 0.76100004 2503484
0.059219711 -0.13374339 0.75900006 5132358
0.06137719 -0.13409582 0.76100004 2567471
0.064045757 -0.13009295 0.76100004 2698034
0.066047192 -0.13009295 0.76100004 2764349
0.064045757 -0.12742437 0.7610001 2304056
0.066047192 -0.12742437 0.76099998 2304319
0.066047192 -0.12408866 0.76100004 2369589
0.066047192 -0.12142009 0.76100004 2434862
0.076822303 -0.21710649 0.76200002 8490652
0.078158334 -0.21710649 0.76200002 9936303
0.076154277 -0.20508213 0.76200002 7766156
0.076154284 -0.20241006 0.76200002 7174792
0.076154277 -0.19906996 0.76200002 6779524
0.076376952 -0.19662054 0.76200002 6645883
0.076822303 -0.19439381 0.76200002 6383736
0.076822303 -0.1903857 0.76200002 5923183
0.079227164 -0.18958408 0.76200002 5464165
0.082834482 -0.18904966 0.76200002 5730423
0.071478143 -0.18437351 0.76200002 5594213
0.073259525 -0.18415083 0.76200002 5659503
0.076376952 -0.18415083 0.76200002 5330793
0.079227164 -0.18450712 0.76200002 5527402
0.081604525 -0.1846146 0.76300001 5002343
0.073482201 -0.18170144 0.76200002 5003621
0.076154277 -0.18170144 0.76200002 5002596
0.079085156 -0.18158573 0.76319999 5002331
0.082214676 -0.18134113 0.764 5069413
0.085061215 -0.18150859 0.76400006 14479871
0.073482193 -0.17836134 0.76200002 4675425
0.076254509 -0.17859425 0.76300001 4673627
0.078295104 -0.17867227 0.76333338 4739157
0.073482201 -0.17502123 0.76200002 4542545
0.076130904 -0.17570388 0.76400012 4673621
0.078363486 -0.1761504 0.76400006 4739156
0.073482201 -0.17234915 0.76200002 4542032
0.076304629 -0.17268887 0.76349998 4739158
0.078363486 -0.17213176 0.76400006 4738656
0.071478143 -0.16900906 0.76200002 4279389
0.073482201 -0.16967708 0.76200002 4672595
0.076408863 -0.16954243 0.76319999 4081485
0.078899302 -0.16918476 0.76400006 4540244
0.08104258 -0.16878289 0.76400006 2899271
0.071144134 -0.16600296 0.76200002 4213844
0.073482193 -0.16633697 0.76200002 4344401
0.076140955 -0.16633031 0.76319999 3949896
0.079033256 -0.16610378 0.76400006 3622472
0.08104258 -0.16610378 0.76400006 1653563
0.06880606 -0.16299687 0.76200002 4147798
0.070810117 -0.16299687 0.76200002 4410446
0.073530853 -0.1631034 0.76250005 4606036
0.075684391 -0.1634247 0.76400006 4015698
0.06880606 -0.1603248 0.76200002 4345430
0.070810124 -0.1603248 0.76200002 4344399
0.073579513 -0.1605352 0.76300001 4211031
0.071478143 -0.15765272 0.76200002 3753289
0.073464669 -0.15749912 0.76319999 3620424
0.06880606 -0.15431261 0.76200002 4211282
0.070959151 -0.15461871 0.76257145 3753286
0.073005296 -0.15471764 0.76400006 3424336
0.06880606 -0.15164053 0.76200002 3818833
0.070751563 -0.15153185 0.76280004 4015690
0.06880606 -0.14830044 0.76200002 3750472
0.070142098 -0.14830044 0.76200002 3751496
0.068138041 -0.14562836 0.76200002 3356737
0.070326202 -0.14534082 0.76400012 3159610
0.067945465 -0.1425726 0.76233339 2962490
0.070326202 -0.14199194 0.76400006 3223357
0.064797938 -0.13961618 0.76200002 2961971
0.067370303 -0.13958572 0.76275003 3027255
0.070326202 -0.13998263 0.76400006 2895687
0.064797938 -0.13627608 0.76200002 2634540
0.067530222 -0.13639532 0.7626667 2633775
0.064129919 -0.13427201 0.76200002 2437166
0.067530222 -0.13438947 0.7626667 2502439
0.068481117 -0.13004532 0.76333332 2370869
0.068076678 -0.12745786 0.76280004 2239287
0.068228342 -0.12441477 0.76300001 2434612
0.068228342 -0.12173919 0.76300001 2106927
0.064797938 -0.11890756 0.76200002 2434361
0.067749023 -0.11860007 0.76325005 2434613
0.067279153 -0.11518573 0.76200002 2107455
0.070326202 -0.11453125 0.76400006 2238256
0.067530222 -0.11232555 0.7626667 2173241
0.070326202 -0.11252192 0.76400006 2238257
0.067589253 -0.10974699 0.76333338 2237996
0.066638358 -0.10719997 0.7626667 2238256
0.066808671 -0.1034919 0.76359999 531749
0.06421496 -0.1003345 0.76300001 13290956
0.066977337 -0.10113578 0.76400006 1256252
0.083940834 -0.18601288 0.76600003 6978696
0.08528389 -0.18601288 0.76600003 14084340
0.083493151 -0.18422216 0.76600003 5926015
0.08528389 -0.18399832 0.76600003 14151167
0.079911679 -0.17862609 0.76600003 4410191
0.082350738 -0.17880687 0.76620001 4609113
0.084050409 -0.17818688 0.76700002 8489607
0.077225566 -0.17526846 0.76600003 4870742
0.079463989 -0.17571615 0.76600003 4410191
0.081898727 -0.17576623 0.76700002 3226436
0.084050409 -0.17684208 0.76700002 9146760
0.079575911 -0.17291813 0.76600003 4475481
0.081254728 -0.1712393 0.76600003 3095619
0.077225566 -0.16385251 0.76600003 3949905
0.079240143 -0.16385251 0.76600003 3491143
0.082015522 -0.16335821 0.76683331 3099208
0.076570846 -0.16052949 0.76616669 3751497
0.079309113 -0.16063397 0.76666671 3423296
0.082033202 -0.16070439 0.76700002 2965310
0.07453946 -0.15646572 0.76600003 3292743
0.076604448 -0.15723981 0.7665 3160387
0.079343595 -0.15734237 0.76700002 2568498
0.074252345 -0.15455195 0.7665 3490124
0.07665398 -0.1548769 0.76700002 3422285
0.078671195 -0.15532516 0.76700002 3422535
0.073916584 -0.1518641 0.7665 3882822
0.07665398 -0.15196314 0.76700002 3487819
0.071853355 -0.14840738 0.76600003 3817289
0.073948435 -0.14856856 0.76683336 3620162
0.07598158 -0.14860113 0.76700002 3095619
0.071853355 -0.14504975 0.76600003 3093815
0.073964365 -0.14523911 0.76700002 3028279
0.07665398 -0.14523911 0.76700002 3093566
0.071853355 -0.14236365 0.76600003 3288894
0.073964365 -0.1425495 0.76700002 3223603
0.076429844 -0.14277363 0.76700002 3093052
0.071468204 -0.13957526 0.76666671 2830145
0.073964365 -0.13985988 0.76700002 2961210
0.07598158 -0.13985988 0.76700002 3223352
0.079343595 -0.13918748 0.76700002 2238759
0.081360802 -0.13918748 0.76700002 401181
0.071372412 -0.1366953 0.76660001 2633014
0.073964365 -0.13649787 0.76700002 2698806
0.07665398 -0.13649787 0.76700002 2633267
0.079343595 -0.13717028 0.76700002 1911070
0.070510298 -0.13497686 0.76600003 2501935
0.071228728 -0.13036121 0.7665 2174265
0.073964365 -0.13044624 0.76700002 2501431
0.07598158 -0.13044624 0.76700002 2633017
0.079343595 -0.13111864 0.76700002 1975586
0.082033202 -0.13044624 0.76700002 4744042
0.084050409 -0.13044624 0.76700002 13815471
0.071228728 -0.12767336 0.7665 2239305
0.073964365 -0.12775664 0.76700002 2108724
0.07598158 -0.12842904 0.76700002 2305846
0.08270561 -0.12775663 0.76700002 10143447
0.071205273 -0.12494494 0.76625001 2369596
0.073964365 -0.1243946 0.76700002 2304050
0.071213089 -0.12159892 0.76633334 2041895
0.073740236 -0.12125673 0.76700002 2107183
0.071228728 -0.11826584 0.7665 1976368
0.071947157 -0.11296376 0.76700002 2304050
0.070934229 -0.10932823 0.76642865 2370351
0.06751056 -0.10579986 0.76625001 1977137
0.070388667 -0.10600238 0.76650006 2435118
0.073964365 -0.10556732 0.76700002 2828597
0.070541568 -0.10346011 0.76633334 2304562
