# .PCD v0.7 - Point Cloud Data file format
VERSION 0.7
FIELDS x y z rgba
SIZE 4 4 4 4
TYPE F F F U
COUNT 1 1 1 1
WIDTH 482
HEIGHT 1
VIEWPOINT 0 0 0 1 0 0 0
POINTS 482
DATA ascii
0.064045757 -0.26819164 0.76100004 4281218620
0.066491954 -0.26841402 0.76099998 4280494880
0.058708616 -0.26552302 0.76100004 4280889924
0.06137719 -0.26552302 0.76100004 4280956227
0.064045757 -0.26619017 0.76100004 4281022524
0.071384333 -0.25818446 0.76100004 4280956727
0.073385768 -0.25818446 0.76100004 4280890934
0.075387195 -0.25818446 0.76100004 4286146895
0.071384333 -0.25618303 0.76100004 4281022271
0.073098511 -0.25618041 0.76033336 4280364345
0.071384333 -0.25418159 0.76100004 4281088068
0.07340242 -0.25351393 0.75980008 4280429888
0.076353505 -0.25334722 0.75900006 4284570713
0.07918141 -0.25218281 0.75900006 4290819997
0.073385768 -0.25084588 0.76100004 4281218881
0.076519847 -0.25018668 0.75900006 4281151801
0.079846799 -0.25018665 0.75900006 4290558644
0.019335469 -0.24736483 0.76055568 4285561975
0.022663003 -0.24729221 0.76033336 4283061085
0.073385768 -0.24884447 0.76100004 4281088064
0.076413602 -0.24817996 0.76060003 4280495674
0.079572752 -0.2477823 0.76020002 4287335811
0.081842974 -0.24819048 0.75900006 4291414196
0.055554807 -0.26288033 0.76350003 4280561722
0.058888618 -0.26299006 0.76333338 4280693564
0.061565373 -0.26299006 0.76333332 4280694072
0.070810124 -0.26186383 0.76200002 4280298801
0.073259525 -0.26164114 0.76200002 4283911998
0.05224232 -0.26054183 0.76400006 4280627517
0.055591185 -0.26054183 0.76400012 4280627516
0.058940053 -0.26054183 0.76400006 4280626739
0.068986662 -0.25987208 0.76400006 4280825922
0.070710182 -0.25986794 0.76333332 4280825141
0.073482201 -0.25985977 0.76200002 4282403135
0.075486258 -0.25985977 0.76200002 4287728243
0.068986662 -0.25652319 0.76400012 4281022271
0.070142098 -0.25651968 0.76200002 4281088064
0.037507311 -0.25317433 0.76400006 4282338127
0.040186401 -0.25317433 0.76400006 4282075723
0.043200381 -0.25350922 0.76400006 4281747274
0.070568167 -0.25351098 0.76300001 4281022274
0.071190156 -0.25067189 0.76250005 4281021757
0.073482201 -0.24783541 0.76200002 4281088320
0.076354161 -0.24714637 0.76400006 4281087818
0.078826353 -0.24649937 0.76200002 4282140752
0.019660827 -0.24488492 0.76280004 4283981146
0.022772294 -0.24580683 0.76400006 4283192924
0.061780453 -0.26122385 0.76600003 4281086520
0.064332262 -0.26229832 0.76600003 4280890425
0.067152664 -0.26189539 0.76600003 4280825406
0.052379079 -0.25920928 0.76600003 4280562489
0.055065185 -0.25920928 0.76600003 4280496698
0.058422823 -0.25920928 0.76600003 4280758842
0.061800838 -0.25929365 0.76625001 4281217854
0.067152664 -0.25920928 0.76600003 4280891195
0.047230709 -0.25629935 0.76600003 4281089099
0.049709413 -0.2566067 0.76625001 4281284673
0.05241327 -0.2566902 0.7665 4281152062
0.055101126 -0.2566902 0.7665 4280824122
0.06455072 -0.25685808 0.76700002 4280890684
0.06717436 -0.2566067 0.76625001 4281022270
0.044320762 -0.25316554 0.76600003 4281681736
0.047048066 -0.2533856 0.76666671 4281285956
0.049757849 -0.25349605 0.76700002 4281219136
0.052447464 -0.25349605 0.76700002 4280890684
0.055137075 -0.25484085 0.76700002 4280693562
0.062533505 -0.25215125 0.76700002 4281152064
0.06488692 -0.25315985 0.76700002 4281021512
0.067210816 -0.2533856 0.76666671 4281021763
0.069167249 -0.25383708 0.76600003 4281088064
0.037638221 -0.25069684 0.76666671 4282206289
0.040326666 -0.25069687 0.76666665 4282074696
0.043502282 -0.2507695 0.76637506 4281746503
0.046395827 -0.25035816 0.76700002 4281482822
0.062533505 -0.25013402 0.76700002 4280759103
0.06455072 -0.25013402 0.76700002 4280759102
0.067152664 -0.24980792 0.76600003 4280627509
0.070062615 -0.2500318 0.76600003 4280890423
0.082597777 -0.24913639 0.76600003 4290692787
0.016810084 -0.24677202 0.76700002 4289705390
0.037654586 -0.24811682 0.76700002 4282403152
0.062533505 -0.24811682 0.76700002 4280759103
0.064774849 -0.24766855 0.76700002 4280496443
0.067196496 -0.24728268 0.7665 4280365111
0.070556328 -0.24728267 0.7665 4280693820
0.073916152 -0.24728268 0.76650006 4280956477
0.076603577 -0.24661115 0.7665 4280824896
0.079240143 -0.24645029 0.76600003 4280431421
0.082597785 -0.24712181 0.76600003 4289507230
0.016810084 -0.24475482 0.76700002 4289441710
0.019150345 -0.24425951 0.7665 4283915095
0.06522312 -0.24542722 0.76700002 4280826174
0.079343595 -0.24475482 0.76700002 4280560193
0.081979729 -0.24459483 0.76650006 4286809749
0.016810084 -0.24273759 0.76700002 4289046411
0.019499697 -0.24139278 0.76700008 4282665801
0.067912735 -0.23534116 0.76700002 4280627783
0.067912735 -0.23332396 0.76700002 4281022270
0.07060235 -0.23332398 0.76700002 4281284683
0.073964365 -0.23265156 0.76700002 4280957259
0.074636765 -0.23063433 0.76700002 4281023056
0.07665398 -0.23063433 0.76700002 4281153861
0.079291433 -0.22981201 0.7665 4281351247
0.081254728 -0.22966212 0.76600003 4281022028
0.080015995 -0.22727232 0.76700002 4281418061
0.082275167 -0.22666468 0.76657146 4280629308
0.08446157 -0.22650087 0.76666665 4284312699
0.05865163 -0.25550538 0.76900005 4280759103
0.055280849 -0.25348294 0.76900005 4280628285
0.05865163 -0.25348291 0.76900005 4280759103
0.047190968 -0.25011212 0.76900005 4281351237
0.049887598 -0.25078627 0.76900005 4281088573
0.052584223 -0.25146043 0.76900005 4280956477
0.054606691 -0.25146043 0.76900005 4280956225
0.05865163 -0.25078627 0.76900005 4280890687
0.039775245 -0.24808967 0.76900005 4282337617
0.062696576 -0.24741551 0.76900005 4281088068
0.064044885 -0.24674135 0.76900005 4280956736
0.064719036 -0.24404472 0.76900005 4280891458
0.016853917 -0.24134809 0.76900005 4286941569
0.064719036 -0.2413481 0.76900005 4280825402
0.066741511 -0.24134809 0.76900005 4280891701
0.01820223 -0.23865148 0.76900005 4282797642
0.064943753 -0.23842676 0.76900005 4280694846
0.066741511 -0.23865148 0.76900005 4280563258
0.064943753 -0.23617955 0.76900005 4280891205
0.066741511 -0.23595482 0.76900005 4280496706
0.067640387 -0.23258406 0.76900005 4280760123
0.070112295 -0.23190992 0.76900005 4280891456
0.072584204 -0.23168521 0.76900005 4280957004
0.074157238 -0.22988741 0.76900005 4281088595
0.077078573 -0.22943799 0.76900005 4281088579
0.078876331 -0.22853911 0.76900005 4281154892
0.07955049 -0.22651665 0.76900005 4281352267
0.056100532 -0.25211442 0.77100003 4280956225
0.041230511 -0.24941079 0.77100003 4282468172
0.043258239 -0.24941079 0.77100003 4282204746
0.046637788 -0.24941079 0.77100009 4281745225
0.050017338 -0.24941079 0.77100003 4281415734
0.052720979 -0.25008669 0.77100003 4280891200
0.055424623 -0.25008669 0.77100003 4280891202
0.060831901 -0.24941079 0.77100003 4280824896
0.040779904 -0.24715775 0.77100009 4282665039
0.043258239 -0.24738304 0.77100003 4281942091
0.046637788 -0.24738304 0.77099997 4281614153
0.050017338 -0.24738306 0.77100003 4281284926
0.061417297 -0.24448854 0.77200001 4280956234
0.061613008 -0.24149071 0.77233338 4281022020
0.056246057 -0.23853751 0.77300006 4280956479
0.058279045 -0.23853749 0.77300006 4281087817
0.061745513 -0.23838632 0.77157146 4280956997
0.064211451 -0.23994805 0.77100003 4280825922
0.056246057 -0.2365045 0.77300006 4280825675
0.058504935 -0.23605271 0.77300006 4280890706
0.061363686 -0.23583999 0.77260005 4280957258
0.064252213 -0.23503083 0.77149999 4281022796
0.061667364 -0.23379387 0.77300006 4281089101
0.064526178 -0.23253232 0.77275008 4281219403
0.066972949 -0.23203643 0.77166671 4281088068
0.06528157 -0.22927611 0.77300006 4281088079
0.067831025 -0.22921836 0.77219999 4281023305
0.070386104 -0.22942953 0.77200007 4280957505
0.072707228 -0.22928122 0.77150005 4281088837
0.075701915 -0.2291335 0.77100003 4280957514
0.067766339 -0.22701722 0.77300006 4281219915
0.070702881 -0.22656544 0.77300006 4281154376
0.073284946 -0.22662799 0.77260005 4281219916
0.076443091 -0.22662486 0.77166671 4281088844
0.079532079 -0.22552864 0.77100009 4281352523
0.082461014 -0.22507803 0.77100003 4279841860
0.08448875 -0.22507803 0.77100003 4280301905
0.076542355 -0.22353218 0.77266669 4281089612
0.079860829 -0.22333872 0.77200007 4281286475
0.082621887 -0.22348382 0.77250004 4279906870
0.084707923 -0.22362891 0.77300006 4279843660
0.082674928 -0.20262134 0.77300006 4280434763
0.052600004 -0.23636124 0.77520007 4280825406
0.055532981 -0.23530295 0.77440006 4280956482
0.058128256 -0.23454867 0.77399999 4280956491
0.060390059 -0.23409632 0.77400005 4281023052
0.056464348 -0.23266031 0.77600002 4281218880
0.058391698 -0.23221014 0.77450001 4281284420
0.061068602 -0.23206069 0.77400005 4281284427
0.06310422 -0.23138215 0.77400005 4281350220
0.038224425 -0.22912033 0.77399999 4281548362
0.040712401 -0.22934651 0.77400005 4281613640
0.043275189 -0.22996777 0.7753334 4281482307
0.046259947 -0.23061943 0.77600002 4281154113
0.056464348 -0.23061943 0.77600002 4281088068
0.05846709 -0.22979054 0.77550006 4281022028
0.061068602 -0.22934651 0.77400005 4281022272
0.063556582 -0.22912033 0.77399999 4281088078
0.0408176 -0.22789827 0.77600002 4281678406
0.058505226 -0.22653769 0.77600002 4281022534
0.058505222 -0.2231362 0.77600002 4281022793
0.061146624 -0.22352721 0.7750001 4281219654
0.058505222 -0.22041504 0.77600002 4281219144
0.061266728 -0.22048132 0.7748 4281350218
0.064461298 -0.2205255 0.77400011 4281220423
0.061226401 -0.21837416 0.77600002 4281088320
0.064800039 -0.21749225 0.7748 4280695885
0.068029329 -0.21565299 0.77600002 4280498250
0.031293493 -0.21293181 0.77600002 4281022271
0.070750505 -0.20816976 0.77600002 4281417808
0.07347168 -0.20816976 0.77600002 4281613908
0.071430802 -0.20612888 0.77600002 4281025366
0.07347168 -0.20544858 0.77600002 4281156179
0.076143324 -0.20531665 0.77550006 4281353554
0.078710645 -0.20559762 0.77400011 4281288276
0.073698439 -0.20295417 0.77600002 4281419606
0.076143324 -0.20259635 0.77550006 4281420375
0.079456978 -0.2023785 0.77466673 4281617755
0.076873146 -0.20068653 0.77600002 4281486169
0.079559542 -0.19992004 0.77566671 4281748572
0.082781881 -0.19949076 0.77400005 4280762192
0.084817506 -0.19949076 0.77400005 4285234306
0.082995787 -0.19796535 0.77600002 4280763477
0.052517597 -0.2353061 0.77800006 4280890684
0.049107358 -0.23257792 0.77800006 4280825398
0.053199641 -0.23189586 0.77800006 4280956474
0.055245783 -0.23257792 0.77800006 4281153088
0.043878336 -0.22894032 0.77800006 4281350215
0.046379171 -0.22984973 0.77800006 4281088066
0.055927828 -0.22916768 0.77800006 4280825922
0.040695455 -0.22666682 0.77800006 4281416002
0.056155179 -0.22666682 0.77800006 4280825923
0.056609876 -0.22371131 0.77800006 4280760386
0.056609876 -0.22098312 0.77800006 4280891200
0.056609876 -0.21893699 0.77800006 4281022520
0.058883365 -0.2184823 0.77800006 4280890949
0.061611548 -0.2171182 0.77800006 4281022535
0.063885041 -0.21666349 0.77800006 4280760907
0.066158526 -0.2162088 0.77800006 4280499792
0.064339735 -0.21438999 0.77800006 4280958015
0.067522623 -0.21416265 0.77800006 4281089101
0.070250809 -0.21348062 0.77800006 4281352271
0.028645961 -0.21075243 0.77800006 4281152064
0.064794436 -0.21075243 0.77800006 4281286226
0.067522623 -0.21143447 0.77800006 4281154894
0.070705503 -0.21120714 0.77800006 4281286225
0.064794436 -0.20938835 0.77800006 4281088847
0.067522615 -0.2087063 0.77800006 4281024329
0.070705503 -0.20575075 0.77800006 4280959566
0.07093285 -0.20324992 0.77800006 4281483859
0.073433697 -0.20165847 0.77800006 4281484629
0.075707182 -0.20120376 0.77800006 4281354584
0.076389231 -0.19983967 0.77800006 4281288790
0.079799466 -0.19847558 0.77800006 4282077023
0.081163555 -0.19847558 0.77800006 4282208609
0.085937887 -0.19847558 0.77800006 4288852671
0.083209693 -0.19711149 0.77800006 4280830040
0.085937887 -0.19711149 0.77800006 4289707214
0.051968798 -0.2345434 0.78000003 4280760121
0.0540202 -0.2345434 0.78000003 4280956477
0.051285002 -0.232492 0.78000003 4280825396
0.0540202 -0.2297568 0.78000003 4280890436
0.0417118 -0.22633781 0.78000003 4281285699
0.054704003 -0.2201836 0.78000003 4280825144
0.05200211 -0.21758735 0.78050005 4280562243
0.055411179 -0.21754104 0.78033346 4280366401
0.058578867 -0.21722047 0.78000003 4280694089
0.060858201 -0.2167646 0.78000003 4280891468
0.052035429 -0.21567313 0.78100002 4280824906
0.055732679 -0.2151254 0.78100002 4280890441
0.058844496 -0.2148504 0.78050005 4280759630
0.061542001 -0.21471322 0.78000003 4280891716
0.063593395 -0.2140294 0.78000003 4280892218
0.061452053 -0.21173024 0.78060007 4281023559
0.064049266 -0.21220593 0.78000003 4281220682
0.061725922 -0.20844519 0.78060001 4280761163
0.064140439 -0.20828548 0.78000003 4280893256
0.061620899 -0.205403 0.78100002 4280500046
0.064297587 -0.20520553 0.78025007 4280499787
0.0663286 -0.20514001 0.78000003 4281220429
0.061849121 -0.2028925 0.78099996 4281023562
0.064338788 -0.2025992 0.78075004 4280892501
0.062305573 -0.19992559 0.78100002 4280891713
0.064359605 -0.19992559 0.78100002 4280499789
0.073850401 -0.1996696 0.78000003 4281550418
0.076585606 -0.1989858 0.78000003 4281681753
0.078637004 -0.1989858 0.78000003 4281551197
0.061757833 -0.19677606 0.78100002 4280957263
0.064359605 -0.19650221 0.78100008 4280958288
0.081828065 -0.19670647 0.78000003 4281486171
0.084791198 -0.1962506 0.78000003 4283788154
0.064587831 -0.19330704 0.78099996 4281088848
0.065044284 -0.19102478 0.78100002 4281089351
0.067782991 -0.1876014 0.78100002 4280957507
0.070521705 -0.18486269 0.78100008 4281154631
0.076609932 -0.18468496 0.78025001 4281419091
0.071891055 -0.18212399 0.78100002 4281089101
0.073945083 -0.182124 0.78100002 4281220431
0.076667279 -0.18140031 0.78083342 4281286990
0.079320803 -0.1818908 0.78000003 4281288526
0.082056001 -0.18189082 0.78000003 4280762953
0.084827431 -0.18128385 0.78033334 4286878100
0.077368461 -0.17870061 0.78100002 4281286226
0.07951875 -0.17888227 0.78060007 4281220947
0.082126133 -0.17862375 0.78066665 4280300872
0.084899902 -0.17801593 0.78100002 4286681760
0.082845874 -0.16363773 0.78100002 4278918709
0.085475005 -0.1634282 0.78000009 4289376946
0.082845874 -0.16021433 0.78100002 4278920500
0.084671676 -0.16044256 0.78099996 4287602598
0.049422961 -0.21622546 0.78300005 4280561473
0.046736855 -0.2144388 0.78400004 4280758848
0.049486078 -0.2144388 0.78400004 4280627265
0.052235305 -0.2144388 0.78400004 4280759104
0.054779101 -0.21430087 0.78433341 4280890687
0.058395058 -0.21366149 0.78366667 4281284681
0.0495492 -0.21264865 0.78500003 4280628282
0.052301936 -0.21264865 0.78500003 4280759865
0.055054665 -0.21196046 0.78500003 4280891198
0.058419898 -0.21169014 0.7840001 4280957507
0.055742849 -0.20989591 0.78500003 4280891968
0.058845248 -0.20856388 0.7844286 4281022798
0.059183769 -0.20507863 0.78500003 4281088587
0.059183769 -0.20232591 0.78500003 4280759882
0.061092272 -0.20181042 0.78300005 4280760128
0.037138671 -0.19944561 0.78450006 4280299057
0.059183769 -0.19957316 0.78500003 4280629075
0.061092272 -0.19975114 0.78300005 4280825922
0.036473714 -0.19750862 0.78500003 4280298804
0.059183769 -0.19682042 0.78500003 4280759631
0.061092272 -0.19563255 0.78300005 4280891214
0.059871953 -0.19475588 0.78500003 4280955977
0.061703838 -0.19335778 0.78380001 4280825162
0.063837998 -0.19288683 0.78300005 4280891468
0.062112708 -0.19092251 0.78433341 4280825925
0.064518988 -0.19025367 0.78460002 4280826177
0.066583708 -0.19014113 0.78300005 4281089351
0.064689234 -0.18718587 0.78500003 4280890937
0.066926926 -0.18705218 0.78300005 4280891715
0.064689234 -0.18443313 0.78500003 4280824393
0.067270137 -0.18396324 0.78300005 4281087811
0.070015863 -0.18327682 0.78300005 4281284427
0.06491863 -0.1819098 0.78500003 4280759362
0.067356057 -0.1814481 0.78400004 4280825922
0.070060134 -0.18133281 0.78350002 4280957262
0.07344801 -0.1805311 0.78300005 4281154120
0.065377414 -0.17961586 0.78500003 4280496958
0.06744197 -0.17892766 0.78500003 4280628798
0.070194706 -0.17892766 0.78500003 4280694593
0.073247775 -0.17879072 0.78380007 4281088073
0.076241508 -0.17824212 0.78350002 4281154639
0.078939453 -0.17778537 0.78300005 4281286226
0.070882887 -0.17617494 0.78500003 4280628287
0.072947428 -0.17548674 0.78500003 4280890695
0.073635615 -0.16378763 0.78500003 4280627517
0.076388352 -0.16378763 0.78500003 4280562248
0.079625882 -0.16337034 0.78300005 4280957008
0.0821428 -0.16314153 0.78300005 4279445055
0.073635615 -0.16172308 0.78500003 4280495926
0.076663621 -0.16117252 0.78500003 4280694338
0.079726696 -0.16082975 0.78400004 4280891463
0.081685178 -0.16062462 0.78300005 4279641658
0.0826772 -0.15778825 0.78460002 4279575599
0.084538713 -0.15739149 0.78400004 4287338915
0.083270177 -0.15415306 0.78500003 4279771439
0.084646545 -0.15415306 0.78500003 4287535270
0.083270177 -0.15140033 0.78500003 4279901995
0.084646545 -0.15140033 0.78500003 4287073176
0.052435186 -0.21112064 0.78700006 4280759357
0.054504998 -0.2104307 0.78700006 4280956477
0.055194937 -0.20836088 0.78700006 4280759112
0.057264745 -0.20836088 0.78700006 4280825423
0.057264745 -0.20560113 0.78700006 4281022272
0.057264745 -0.20284139 0.78700006 4280824896
0.037946519 -0.19801183 0.78700006 4280364597
0.057264745 -0.19939171 0.787 4280890695
0.057724703 -0.19571204 0.787 4280693059
0.055424914 -0.19341226 0.787 4280627767
0.057954684 -0.19318227 0.78700006 4280759354
0.060024489 -0.19318227 0.78700006 4280759357
0.061059393 -0.19007757 0.78700006 4280628542
0.062094301 -0.18766278 0.78700006 4280693823
0.062094305 -0.18490303 0.78700006 4280693571
0.062094301 -0.18283322 0.78700006 4280824896
0.06416411 -0.18076341 0.78700006 4280628548
0.065084033 -0.17823364 0.787 4280561222
0.067613795 -0.17731373 0.78700006 4280431417
0.069683604 -0.17731373 0.78700006 4280496958
0.065543987 -0.17593385 0.78700006 4280561222
0.067613795 -0.17524391 0.78700006 4280431163
0.070143558 -0.17501394 0.787 4280496701
0.067613795 -0.17248417 0.78700006 4280430138
0.070373543 -0.17248419 0.78700006 4280627515
0.072443359 -0.17248417 0.78700006 4280759099
0.067613795 -0.17041436 0.78700006 4280430138
0.07060352 -0.16995442 0.787 4280495421
0.071063481 -0.16696468 0.78700006 4280561223
0.072443359 -0.16696468 0.78700006 4280561467
0.071063481 -0.16351499 0.787 4280495678
0.072443359 -0.16351499 0.787 4280430137
0.073363267 -0.16029529 0.787 4280496178
0.076238006 -0.15972033 0.78700006 4280825155
0.080032654 -0.15937537 0.78700006 4280957762
0.073823228 -0.15799549 0.78700006 4280627517
0.076582968 -0.15730555 0.78700012 4280825160
0.080032654 -0.15730557 0.78700006 4280891714
0.082102463 -0.15661563 0.78700006 4279576112
0.080032654 -0.15454581 0.78700006 4281087809
0.082102463 -0.15454581 0.78700006 4279641390
0.054643508 -0.19298151 0.78900003 4280561724
0.055335201 -0.19090644 0.78900003 4280627266
0.05810196 -0.19090644 0.78900003 4280562493
0.052964475 -0.18762574 0.78974998 4280890956
0.055370122 -0.18756618 0.7895 4280431432
0.058101956 -0.18744798 0.78900003 4280300095
0.060177032 -0.18744798 0.78900003 4280431418
0.056097899 -0.1849153 0.79000002 4280956225
0.05812015 -0.18404761 0.78925002 4280824892
0.060177032 -0.18398954 0.78900003 4280693562
0.058868166 -0.18214503 0.79000002 4280627517
0.061573122 -0.18126093 0.78916669 4280693311
0.061585829 -0.17853141 0.78933334 4280298553
0.064327173 -0.17776433 0.78900003 4280363843
0.061611842 -0.17583771 0.78966665 4280363840
0.064788304 -0.17545868 0.78900003 4280429379
0.058868166 -0.17175654 0.79000002 4280233286
0.061445348 -0.17256744 0.78974998 4280232515
0.065018862 -0.17292251 0.78900003 4280298550
0.062943794 -0.17084743 0.78900003 4280232257
0.064780906 -0.16961697 0.78971428 4280233020
0.067785621 -0.16877237 0.78900003 4280233527
0.069860689 -0.16877237 0.78900003 4280495172
0.065793835 -0.16621599 0.79000002 4280232770
0.067785621 -0.1660056 0.78900003 4280299057
0.069860689 -0.1660056 0.78900003 4280824137
0.065793835 -0.16344574 0.79000002 4280167228
0.067785621 -0.16323885 0.78900003 4280364597
0.069860689 -0.16323885 0.78900003 4280430138
0.065793835 -0.16136803 0.79000002 4280298050
0.06784983 -0.1606244 0.78974998 4280167479
0.070574515 -0.1605227 0.78925002 4280495674
0.072627448 -0.15978038 0.78900003 4280298804
0.067871526 -0.15790519 0.79000002 4280298814
0.07059665 -0.15780526 0.7895 4280495680
0.073088579 -0.15747477 0.78900003 4280495931
0.068564095 -0.15513492 0.79000002 4280561222
0.0706117 -0.15437691 0.78966665 4280757577
0.073319137 -0.15493855 0.78900003 4280953927
0.070641801 -0.15097953 0.79000002 4280495678
0.073319145 -0.15148011 0.78900003 4280692034
0.070641801 -0.14890184 0.79000002 4280561724
0.073342152 -0.14806834 0.78925002 4280430138
0.076085903 -0.14802167 0.78900003 4280693310
0.076109797 -0.1453007 0.78925002 4281086789
0.079544351 -0.1452549 0.78900003 4280561980
0.058091443 -0.18168043 0.79200006 4280759110
0.05834714 -0.17851476 0.79233342 4280627528
0.061100163 -0.16941407 0.79200006 4280101696
0.063183121 -0.16871975 0.79200006 4280102456
0.063877441 -0.16663679 0.79200006 4280298556
0.063877441 -0.16385952 0.79200006 4280232513
0.064825997 -0.1576352 0.7930001 4280364094
0.067349039 -0.156222 0.79200006 4280495172
0.064679295 -0.15439853 0.79333335 4280495675
0.067811914 -0.1539076 0.79200006 4280560965
0.064734817 -0.15174398 0.79400003 4280430915
0.067404561 -0.15148918 0.79266673 4280561729
0.067490183 -0.14889687 0.79366666 4280627780
0.070820644 -0.14789017 0.79200006 4280562251
0.068215191 -0.14687148 0.79400003 4280825675
0.070999481 -0.14547932 0.79400009 4280627775
0.073721819 -0.14535601 0.79333335 4280693310
0.068215191 -0.14199895 0.79400003 4278991162
0.070999473 -0.14199895 0.79400003 4279578674
0.07378377 -0.14199895 0.79400003 4280758846
0.068215191 -0.13921468 0.79400003 4285563029
0.070999473 -0.13991074 0.79400003 4278200103
0.06385114 -0.15107948 0.79600006 4280759113
0.064432673 -0.14817186 0.79600006 4280167233
0.06629353 -0.14724143 0.79600006 4280759355
0.064897887 -0.14514795 0.79600006 4278536002
0.066991359 -0.14514795 0.79600006 4278794044
0.069084845 -0.14514795 0.79600006 4279908679
0.06629353 -0.14235663 0.79600006 4284311166
0.061639309 -0.14779636 0.79900002 4282006093
0.063661784 -0.14761138 0.79800004 4280033860
0.063661784 -0.14551264 0.79800004 4284837227
0.065060943 -0.1434139 0.79800004 4285695404
