# .PCD v0.7 - Point Cloud Data file format
VERSION 0.7
FIELDS x y z rgba
SIZE 4 4 4 4
TYPE F F F U
COUNT 1 1 1 1
WIDTH 211
HEIGHT 1
VIEWPOINT 0 0 0 1 0 0 0
POINTS 211
DATA ascii
0.036692884 0.059375759 0.76100004 4278190080
0.034691453 0.06137719 0.76100004 4278190080
0.036692884 0.06137719 0.76100004 4278190080
0.03549799 0.049563229 0.76400006 4278190080
0.037507311 0.049563225 0.76400006 4278190080
0.035405058 0.054777637 0.76200002 4278190080
0.037409116 0.054777637 0.76200002 4278190080
0.03941318 0.054777637 0.76200002 4279703572
0.032775939 0.061537616 0.76300001 4278190080
0.032732978 0.0634619 0.76200002 4278190080
0.034959707 0.063907243 0.76200002 4278190080
0.036741097 0.0634619 0.76200002 4278190080
0.032732978 0.066802002 0.76200002 4278190080
0.034737036 0.066802002 0.76200002 4278190080
0.034737036 0.071478143 0.76200002 4278190080
0.036741097 0.071478143 0.76200002 4278190080
0.034737036 0.073482201 0.76200002 4278190080
0.036741097 0.073482201 0.76200002 4278190080
0.032947764 0.050430249 0.76700002 4278190080
0.03424786 0.050364498 0.76600003 4278190080
0.032947764 0.052447461 0.76700002 4278190080
0.034930564 0.052396394 0.76625001 4278190080
0.037605494 0.052379079 0.76600003 4278190080
0.032947764 0.055137075 0.76700002 4278190080
0.034292568 0.055137075 0.76700002 4278190080
0.032947764 0.058499087 0.76700002 4278190080
0.034964971 0.058499083 0.76700002 4278190080
0.036982182 0.057154279 0.76700002 4278190080
0.031154687 0.062085241 0.76700002 4278190080
0.031602956 0.06455072 0.76700002 4278190080
0.034292568 0.06522312 0.76700002 4278190080
0.031602956 0.067240328 0.76700002 4278190080
0.031974912 0.07076817 0.76671439 4278190080
0.03494218 0.069884799 0.76650006 4278190080
0.03225388 0.073916145 0.7665 4278190080
0.031846493 0.076728322 0.76639998 4278190080
0.034919389 0.076554045 0.76600003 4278190080
0.031561755 0.079240143 0.76600003 4278190080
0.034919389 0.079240143 0.76600003 4278190080
0.036933966 0.079240143 0.76600003 4279046155
0.03227536 0.082033202 0.76700002 4278190080
0.03494218 0.081980169 0.7665 4278190080
0.036958076 0.081980169 0.7665 4279044871
0.032611564 0.085059017 0.76700002 4278190080
0.034949776 0.085357524 0.76666671 4278190080
0.036933966 0.085955411 0.76600003 4279833617
0.032947764 0.088757239 0.76700002 4278190080
0.03494218 0.08869981 0.76650006 4278190080
0.036958076 0.088699818 0.7665 4280427551
0.032947764 0.091446854 0.76700002 4278190080
0.034964971 0.091446854 0.76700002 4278190080
0.036982182 0.091446854 0.76700002 4280362784
0.032947764 0.094808869 0.76700002 4278190080
0.034964971 0.094136462 0.76700002 4278190080
0.036982182 0.094136462 0.76700002 4281084457
0.032947764 0.096826077 0.76700002 4278190080
0.034964971 0.096826077 0.76700002 4278190080
0.036982182 0.096153669 0.76700002 4281611066
0.03227536 0.11027414 0.76700002 4278190080
0.034292568 0.10960174 0.76700002 4278849037
0.031685364 0.049887598 0.76900005 4278190080
0.03303368 0.049213439 0.76900005 4278190080
0.031685364 0.052584223 0.76900005 4278190080
0.031685364 0.055280849 0.76900005 4278190080
0.031685364 0.05865163 0.76900005 4278190080
0.028988736 0.062696576 0.76900005 4278190080
0.030337052 0.061348256 0.76900005 4278190080
0.028988736 0.064044885 0.76900005 4278190080
0.030337052 0.065393195 0.76900005 4278190080
0.030337052 0.06741567 0.76900005 4278190080
0.030337052 0.074157238 0.76900005 4278190080
0.030337052 0.076179706 0.76900005 4278190080
0.030337052 0.082247116 0.76900005 4278190080
0.03078649 0.085168459 0.76900005 4278190080
0.031011209 0.089662842 0.76900005 4278190080
0.031011209 0.091685303 0.76900005 4278190080
0.03303368 0.093707778 0.76900005 4278190080
0.031235928 0.10089878 0.76900005 4278190080
0.031011209 0.10382013 0.76900005 4278190080
0.03303368 0.10314597 0.76900005 4278190080
0.028461862 0.050824754 0.77300006 4278190080
0.030415948 0.050693247 0.77100003 4278190080
0.028687751 0.052631855 0.77300006 4278190080
0.030415948 0.052720979 0.77100003 4278190080
0.029139524 0.055568397 0.77300006 4278190080
0.030455399 0.055497386 0.77200007 4278190080
0.029139524 0.058279045 0.77300006 4278190080
0.030494852 0.058279045 0.77300006 4278190080
0.028662616 0.061162401 0.77233338 4278190080
0.030415948 0.060155991 0.77100003 4278190080
0.028424162 0.064292982 0.77200007 4278190080
0.026360489 0.066915087 0.77100003 4278190080
0.028388219 0.067590997 0.77100003 4278190080
0.02771231 0.069618732 0.77100003 4278190080
0.030415948 0.069618732 0.77100003 4278190080
0.029139524 0.073865302 0.77300006 4278190080
0.029114394 0.076508753 0.77233338 4278190080
0.028424162 0.079860829 0.77200007 4278190080
0.029101826 0.082567096 0.77200007 4278190080
0.02842504 0.085275993 0.77200007 4278190080
0.028687751 0.087870352 0.77300006 4278190080
0.031091858 0.087868303 0.77100003 4278190080
0.029139524 0.091484547 0.77300006 4278190080
0.031111583 0.094689213 0.77149999 4278190080
0.029139524 0.10300483 0.77300006 4278190080
0.029139524 0.10503782 0.77300006 4278190080
0.030494852 0.11045913 0.77300006 4278190080
0.030919157 0.11262039 0.77233338 4278190080
0.033795502 0.11287697 0.77100003 4278454277
0.031767767 0.11693244 0.77100003 4278190080
0.0335702 0.11648182 0.77100009 4278782730
0.030919157 0.11803702 0.77233338 4278190080
0.033119593 0.11828425 0.77100003 4278190080
0.02782014 0.053604662 0.77400005 4278190080
0.026032327 0.055914968 0.77466673 4278190080
0.02782014 0.05564028 0.77400005 4278190080
0.023810266 0.05918552 0.77600002 4278914048
0.025816958 0.05842983 0.7750001 4278190080
0.02782014 0.058354437 0.77400005 4278190080
0.023810266 0.060546108 0.77600002 4278782720
0.025784522 0.061068602 0.77400005 4278190080
0.02782014 0.060390059 0.77400005 4278190080
0.02614001 0.064162791 0.77450001 4278190080
0.02782014 0.065139845 0.77400005 4278190080
0.026463062 0.073282324 0.77400005 4278190080
0.02782014 0.073960863 0.77400005 4278190080
0.02782014 0.075996481 0.77400005 4278190080
0.026531437 0.079594322 0.77600002 4278190080
0.02782014 0.078032099 0.77400005 4278190080
0.026531439 0.08231549 0.77600002 4278190080
0.027856084 0.082889713 0.77500004 4278190080
0.023810266 0.085716963 0.77600002 4278190080
0.025851147 0.085716963 0.77600002 4278190080
0.025851147 0.088438138 0.77600002 4278190080
0.02782014 0.088888742 0.77400005 4278190080
0.025851145 0.090479009 0.77600002 4278190080
0.02782014 0.091602899 0.77399999 4278190080
0.028553473 0.095180139 0.77550006 4278190080
0.028799085 0.097735487 0.77600002 4278190080
0.031293493 0.097962238 0.77600002 4278190080
0.02782014 0.10381662 0.77400005 4278190080
0.028516652 0.1065996 0.77450001 4278190080
0.03121284 0.10720932 0.77400005 4278190080
0.033248462 0.10653078 0.77400005 4278190080
0.028406104 0.10968573 0.77520007 4278190080
0.03121284 0.10924494 0.77400005 4278190080
0.033248462 0.10924494 0.77400005 4278190080
0.028534625 0.11278316 0.7750001 4278190080
0.028572319 0.11564986 0.77600002 4278190080
0.031253166 0.11550172 0.77500004 4278190080
0.033248462 0.11467327 0.77400005 4278190080
0.029252613 0.11837104 0.77600002 4278190080
0.029252613 0.12041192 0.77600002 4278190080
0.030613201 0.12041192 0.77600002 4278190080
0.023871634 0.05797397 0.77800006 4279046912
0.023871634 0.062066246 0.77800006 4279111168
0.023871634 0.063430339 0.77800006 4278388480
0.023871634 0.077071279 0.77800006 4278190080
0.025917776 0.076389231 0.77800006 4278190080
0.023871634 0.079117417 0.77800006 4278190080
0.025235727 0.079117417 0.77800006 4278190080
0.023871634 0.081163555 0.77800006 4278190080
0.025576752 0.08286868 0.77800006 4278190080
0.022507541 0.086619928 0.77800006 4278190080
0.023189586 0.088666067 0.77800006 4278190080
0.023189588 0.090712212 0.77800006 4278190080
0.026599821 0.092076302 0.77800006 4278190080
0.026599821 0.09412244 0.77800006 4278190080
0.027963914 0.098896764 0.77800006 4278190080
0.027963914 0.11867613 0.77800006 4278190080
0.027963914 0.12072226 0.77800006 4278190080
0.023933001 0.0827398 0.78000003 4278190080
0.023933001 0.084107399 0.78000003 4278190080
0.023279006 0.092431352 0.78100002 4278190080
0.0253006 0.092312999 0.78000003 4278190080
0.023963682 0.093800701 0.78100002 4278190080
0.02531682 0.094425328 0.78050005 4278190080
0.026000619 0.097161837 0.78050005 4278190080
0.026009167 0.099931017 0.78074998 4278190080
0.028756419 0.10064746 0.78100002 4278190080
0.030810449 0.10064746 0.78100002 4278190080
0.026017714 0.10338617 0.78100002 4278190080
0.028071743 0.10201682 0.78100002 4278190080
0.026017714 0.10680956 0.78100002 4278190080
0.026245939 0.10932004 0.78099996 4278190080
0.0266682 0.1121432 0.78000003 4278190080
0.0266682 0.1155622 0.78000003 4278190080
0.0266682 0.1189812 0.78000003 4278190080
0.021333683 0.092904754 0.78500003 4278190080
0.022021865 0.094969295 0.78500003 4278190080
0.024025051 0.095413774 0.78300005 4278190080
0.022652192 0.098159492 0.78300005 4278190080
0.024025051 0.097473063 0.78300005 4278190080
0.022652192 0.099532358 0.78300005 4278190080
0.024055734 0.10034765 0.78400004 4278190080
0.025085378 0.10343922 0.78400004 4278190080
0.028143629 0.10365093 0.78300005 4278190080
0.022652192 0.10502379 0.78300005 4278190080
0.024025051 0.10571022 0.78300005 4278190080
0.02441429 0.10969467 0.78450006 4278190080
0.024960747 0.11244097 0.78366667 4278190080
0.025430348 0.11546664 0.78400004 4278190080
0.025397912 0.11806597 0.78300005 4278190080
0.025397912 0.12012526 0.78300005 4278190080
0.022077974 0.097281076 0.78700006 4278190080
0.024147784 0.11383955 0.78700006 4278190080
0.024147784 0.11590937 0.78700006 4278190080
0.024147784 0.11866912 0.78700006 4278190080
0.024147784 0.12073892 0.78700006 4278190080
0.02282577 0.11205378 0.78900003 4278190080
0.02282577 0.11412886 0.78900003 4278190080
