# .PCD v0.7 - Point Cloud Data file format
VERSION 0.7
FIELDS x y z rgba
SIZE 4 4 4 4
TYPE F F F U
COUNT 1 1 1 1
WIDTH 260
HEIGHT 1
VIEWPOINT 0 0 0 1 0 0 0
POINTS 260
DATA ascii
0.026877724 -0.04312937 0.71300006 4290099644
0.028672259 -0.043008391 0.71100003 4290886076
0.026877724 -0.041879244 0.71300006 4292532954
0.028699143 -0.040551968 0.71166676 4291809495
0.031075904 -0.04031001 0.71179998 4291148994
0.028752914 -0.038128864 0.71300006 4293322470
-0.0012553866 -0.048332386 0.71600002 4292066745
-0.0012553866 -0.046449307 0.71600002 4294044909
0.022596959 -0.045821615 0.71600002 4294375156
0.022596961 -0.04331084 0.71600002 4294967295
0.024775915 -0.04328059 0.71550006 4294243829
0.025693346 -0.040376265 0.71485722 4294967295
0.026572352 -0.037870828 0.71600002 4294967295
0.028873893 -0.037033904 0.71600002 4294243572
0.031384666 -0.038289294 0.71600002 4291217360
0.026676968 -0.025421582 0.71600002 4294967295
0.028748354 -0.025986504 0.71600002 4294967295
0.02548435 -0.022722499 0.71600002 4294967295
0.029028187 -0.022764111 0.71466666 4294967295
0.030671062 -0.022533841 0.71400005 4294967295
0.018830799 -0.0188308 0.71600002 4294967295
0.023224654 -0.019458493 0.71600002 4294967295
0.024793889 -0.01977234 0.71600002 4294967295
0.029501585 -0.019458493 0.71600002 4294967295
0.030756971 -0.019458493 0.71600002 4294967295
0.019458493 -0.016320026 0.71600002 4294967295
0.022596959 -0.016320027 0.71600002 4294967295
0.025735429 -0.016320026 0.71600002 4294967295
0.029501585 -0.01694772 0.71600002 4294967295
0.030756971 -0.01694772 0.71600002 4294967295
0.01977234 -0.014123099 0.71600002 4294967295
0.022596959 -0.013809253 0.71600002 4294967295
0.024898505 -0.014018483 0.71600002 4294967295
0.019615417 -0.010513864 0.71600002 4294967295
0.022596961 -0.010670786 0.71600002 4294967295
0.024480041 -0.01129848 0.71600002 4294967295
0.019458493 -0.0075323205 0.71600002 4294967295
0.018830799 -0.0056492398 0.71600002 4294967295
-0.00314285 -0.048399888 0.71700001 4289698726
0.011976144 -0.048534896 0.71900004 4294967295
0.01323679 -0.048534896 0.71900004 4294967295
-0.0035618965 -0.046304654 0.71700001 4291741393
0.011345821 -0.046643928 0.71900004 4294967295
0.013867114 -0.046643928 0.71900004 4294967295
0.016388407 -0.046643928 0.71900004 4294967295
0.019224862 -0.046328768 0.71900004 4294967295
-0.0069335569 -0.042231664 0.71900004 4294967295
-0.0044078799 -0.043430068 0.71800005 4294967295
-0.00125714 -0.044628471 0.71700001 4294967295
0.011075682 -0.043312218 0.71899998 4294967295
0.013860392 -0.043472737 0.71866673 4294967295
0.016381102 -0.043472726 0.71866673 4294967295
0.019515088 -0.043439321 0.71811116 4294967295
-0.0094548501 -0.040340692 0.71900004 4292729322
-0.0075638802 -0.040340696 0.71900004 4294967295
-0.0056729098 -0.040340692 0.71900004 4294967295
0.010967626 -0.040466759 0.71900004 4294967295
0.013857032 -0.040312201 0.71850002 4294967295
0.016377449 -0.040312201 0.71850002 4294967295
0.019502617 -0.040265884 0.71766669 4294967295
0.022628518 -0.040228479 0.71700001 4294967295
-0.010715497 -0.037189078 0.71900004 4294967295
-0.0069335569 -0.038449723 0.71900004 4294967295
-0.0056729098 -0.038449723 0.71900004 4294967295
0.011345821 -0.0378194 0.71900004 4294967295
0.013857032 -0.037793536 0.71850008 4294967295
0.016365614 -0.037767675 0.71800005 4294967295
0.019512847 -0.037767675 0.71800011 4294967295
0.02262852 -0.037714198 0.71700001 4294967295
0.024933277 -0.037504677 0.71700001 4294967295
0.031473212 -0.037137352 0.71800005 4291414750
-0.010557916 -0.034510203 0.71899998 4294703613
-0.0075638802 -0.034667782 0.71900004 4294967295
-0.0042546825 -0.034825362 0.71899998 4294967295
0.011345821 -0.035298105 0.71900004 4294967295
0.013853672 -0.034635052 0.71833342 4294967295
0.016358016 -0.034602325 0.71766669 4294967295
0.019485669 -0.03457135 0.71700001 4294967295
0.022649562 -0.034602325 0.71766669 4294967295
0.025142798 -0.03457135 0.71700001 4294967295
0.028303185 -0.034592781 0.71744448 4294967295
0.031516165 -0.034667779 0.71900004 4293256429
-0.010085173 -0.031516168 0.71900004 4294967295
-0.0081942035 -0.031516168 0.71900004 4294967295
0.011976144 -0.030885844 0.71900004 4294967295
0.013867114 -0.031516168 0.71900004 4294967295
0.016388407 -0.031516168 0.71900004 4294967295
0.019485671 -0.031428497 0.71700001 4294967295
0.022691639 -0.031516168 0.71900004 4294967295
0.0251428 -0.031428501 0.71700001 4294967295
-0.0094548501 -0.029625198 0.71900004 4294967295
-0.0081942035 -0.029625198 0.71900004 4294967295
0.0012606466 -0.027734227 0.71900004 4294967295
0.0044122636 -0.027103903 0.71900004 4294967295
0.0075638806 -0.027734227 0.71900004 4294967295
0.010967627 -0.028112421 0.71900004 4294967295
0.013853672 -0.028338835 0.71833342 4294967295
0.016350126 -0.028299384 0.71733332 4294967295
0.019485669 -0.028285649 0.71700001 4294967295
0.022671184 -0.028338835 0.7183333 4294967295
0.025142798 -0.028285651 0.71700001 4294967295
0.028034221 -0.029039934 0.71700001 4294967295
0.0012606466 -0.025212934 0.71900004 4294967295
0.0040971017 -0.025528096 0.71900004 4294967295
0.0075638806 -0.025212934 0.71900004 4294967295
0.010715497 -0.02508687 0.71900004 4294967295
0.01384695 -0.025177866 0.71800005 4294967295
0.016342819 -0.025142798 0.71700001 4294967295
0.019485669 -0.025142798 0.71700001 4294967295
0.022644736 -0.025160771 0.71750003 4294967295
0.024933277 -0.025352322 0.71700001 4294967295
0.029542791 -0.02451423 0.71700001 4294967295
0.031428501 -0.02451423 0.71700001 4294967295
0.0075638802 -0.022691639 0.71900004 4294967295
0.010967626 -0.022817705 0.71900004 4294967295
0.013846951 -0.022660078 0.71800005 4294967295
0.016342819 -0.022628518 0.71700001 4294967295
0.019485671 -0.022628518 0.71700001 4294967295
0.02262852 -0.022628518 0.71700001 4294967295
0.02765708 -0.02199995 0.71700001 4294967295
0.032057069 -0.023257088 0.71700001 4294967295
-0.00063032337 -0.0189097 0.71900004 4294967295
0.0012606466 -0.019540023 0.71900004 4294967295
0.0046223709 -0.019540025 0.71900004 4294967295
0.0075568669 -0.019523075 0.71833342 4294967295
0.011066665 -0.019345403 0.71842861 4294967295
0.013834678 -0.019495314 0.71733332 4294967295
0.016342821 -0.019485669 0.71700001 4294967295
0.019988526 -0.019988526 0.71700001 4294967295
0.02199995 -0.019485669 0.71700001 4294967295
0.025771368 -0.018857099 0.71700001 4294967295
0.027657079 -0.019485671 0.71700001 4294967295
0.0044070035 -0.016373212 0.71833342 4294967295
0.0075428393 -0.016342821 0.71700001 4294967295
0.010694456 -0.016358016 0.71766669 4294967295
0.01382854 -0.016342819 0.71700001 4294967295
0.016342819 -0.016342819 0.71700001 4294967295
0.028704695 -0.016133295 0.71700001 4294967295
0.0014707544 -0.013657006 0.71900004 4294967295
0.0044034966 -0.013841982 0.71766669 4294967295
0.0075428393 -0.01382854 0.71700001 4294967295
0.01068569 -0.013828538 0.71700001 4294967295
0.01382854 -0.01382854 0.71700001 4294967295
0.016342819 -0.01382854 0.71700001 4294967295
0.018857099 -0.013199969 0.71700001 4294967295
0.0013867113 -0.010967626 0.71900004 4294967295
0.0044046659 -0.010698158 0.71788889 4294967295
0.0075428393 -0.01068569 0.71700001 4294967295
0.01068569 -0.010685689 0.71700001 4294967295
0.013828541 -0.01068569 0.71700001 4294967295
0.016342821 -0.01068569 0.71700001 4294967295
0.018228529 -0.01194283 0.71700001 4294967295
-0.0006294467 -0.0075542368 0.71800005 4294967295
0.0012588933 -0.0075542368 0.71800005 4294967295
0.0044014505 -0.0075466386 0.71733332 4294967295
0.0075428393 -0.0075428393 0.71700001 4294967295
0.01068569 -0.0075428393 0.71700001 4294967295
0.01382854 -0.0075428393 0.71700001 4294967295
0.016342819 -0.0075428393 0.71700001 4294967295
-0.00062856998 -0.0056571299 0.71700001 4294967295
0.0014666632 -0.0052380837 0.71700001 4294967295
0.0043999897 -0.0050285594 0.71700001 4294967295
0.0073333159 -0.0052380837 0.71700001 4294967295
0.01069504 -0.0050326511 0.71766669 4294967295
0.01382854 -0.0050285598 0.71700001 4294967295
0.016133295 -0.0052380837 0.71700001 4294967295
0.0075743999 -0.051758397 0.72000003 4291212983
0.0099162692 -0.051691193 0.72200006 4291279304
0.0075800982 -0.049268231 0.72050005 4294570223
0.01047792 -0.049359839 0.72000003 4294506488
-0.0056965803 -0.046205595 0.72200006 4289634986
0.0012624001 -0.0467088 0.72000003 4294967295
0.0094679995 -0.0467088 0.72000003 4294967295
-0.006962487 -0.044306736 0.72200006 4292661203
-0.0044229082 -0.043587867 0.72057152 4294176495
-0.0012624001 -0.042921599 0.72000003 4294967295
0.0012624 -0.043552801 0.72000003 4294967295
0.0044184001 -0.043552801 0.72000003 4294967295
0.0075743999 -0.043552801 0.72000003 4294967295
0.0094679995 -0.044183999 0.72000003 4294967295
-0.0037871997 -0.040396802 0.72000003 4294967295
-0.0012624001 -0.040396802 0.72000003 4294967295
0.001263715 -0.040424414 0.72050005 4294967295
0.0044184001 -0.040396798 0.72000003 4294967295
0.0075743999 -0.040396802 0.72000003 4294967295
0.0094679995 -0.0397656 0.72000003 4294967295
-0.0094679995 -0.037872002 0.72000003 4294967295
-0.00416592 -0.037745763 0.72000003 4294967295
-0.0012624001 -0.037872002 0.72000003 4294967295
0.0012624 -0.037872002 0.72000003 4294967295
0.0044183997 -0.037872002 0.72000003 4294967295
0.0075743999 -0.037872002 0.72000003 4294967295
0.0094679995 -0.037872002 0.72000003 4294967295
-0.0138864 -0.033453599 0.72000003 4292594638
-0.0056808004 -0.033453599 0.72000003 4294967295
0.0012624 -0.034715999 0.72000003 4294967295
0.0044184001 -0.034715995 0.72000003 4294967295
0.0075743999 -0.034715999 0.72000003 4294967295
0.010225439 -0.03421104 0.72000003 4294967295
-0.013689443 -0.031378239 0.72066671 4293779168
-0.0119928 -0.03156 0.72000003 4294967295
-0.0069431998 -0.03156 0.72000003 4294967295
-0.0044184001 -0.03156 0.72000003 4294967295
-0.0012624001 -0.03156 0.72000003 4294967295
0.0012624 -0.03156 0.72000003 4294967295
0.0044183997 -0.03156 0.72000003 4294967295
0.0075743999 -0.03156 0.72000003 4294967295
0.01047792 -0.031686239 0.72000003 4294967295
-0.013292021 -0.028482901 0.72200006 4294966009
-0.010888199 -0.0282462 0.72000003 4294967295
-0.0074481601 -0.028151518 0.72000003 4294967295
-0.0044232705 -0.028429521 0.72066677 4294967295
-0.0012629844 -0.028430885 0.72066671 4294967295
0.0012624 -0.0296664 0.72000003 4294967295
0.0044183997 -0.029035198 0.72000003 4294967295
0.0075743999 -0.0296664 0.72000003 4294967295
0.0104148 -0.028719598 0.72000003 4294967295
-0.013292021 -0.025318136 0.72200006 4294438641
-0.010120679 -0.025301039 0.7215001 4294967295
-0.0075897421 -0.025301039 0.72150004 4294967295
-0.0044277511 -0.025294757 0.72133332 4294967295
-0.0012624 -0.025248 0.72000003 4294967295
0.0050496003 -0.0246168 0.72000003 4294967295
0.0107304 -0.025879199 0.72000003 4294967295
-0.013292021 -0.022786321 0.72200006 4294373104
-0.010120679 -0.022770103 0.7215001 4294967295
-0.0075897421 -0.022770103 0.72150004 4294967295
-0.0044277515 -0.022765281 0.72133344 4294967295
-0.0012624001 -0.0227232 0.72000003 4294967295
0.0012624001 -0.022723198 0.72000003 4294967295
0.0044184001 -0.022723198 0.72000003 4294967295
0.0094679995 -0.022092 0.72000003 4294967295
-0.012448084 -0.020465491 0.72200006 4294899707
-0.010127254 -0.019621553 0.72200006 4294967295
-0.0075954399 -0.019621553 0.72200006 4294967295
-0.0044275564 -0.019610252 0.72155559 4294967295
-0.0015793151 -0.019895513 0.72050005 4294967295
0.0012624 -0.019567199 0.72000003 4294967295
0.0039975997 -0.019567201 0.72000003 4294967295
0.0094679995 -0.020198401 0.72000003 4294967295
-0.010127254 -0.016456787 0.72200006 4294967295
-0.0075906185 -0.016445829 0.7215001 4294967295
-0.0044213221 -0.016426396 0.72066671 4294967295
-0.0012624001 -0.0164112 0.72000003 4294967295
0.0012624 -0.0164112 0.72000003 4294967295
-0.0099162692 -0.014135958 0.72200006 4294967295
-0.0075922259 -0.013285301 0.72166675 4294967295
-0.0042475751 -0.013647948 0.72171438 4294967295
-0.0012624 -0.0138864 0.72000003 4294967295
0.00063119998 -0.014517601 0.72000003 4294967295
-0.0073844562 -0.010338238 0.72200006 4294967295
-0.0044226581 -0.010742173 0.7208572 4294967295
-0.001263569 -0.010739166 0.72066671 4294967295
0.00063119998 -0.0094679995 0.72000003 4294967295
-0.0031647668 -0.0082283933 0.72200006 4294967295
-0.00189886 -0.0082283933 0.72200006 4294967295
-0.01584575 -0.022184052 0.72300005 4293977570
-0.01584575 -0.020282559 0.72300005 4294502885
-0.013732984 -0.019226177 0.72300005 4294701039
-0.0126766 -0.01711341 0.72300005 4294899189
