# .PCD v0.7 - Point Cloud Data file format
VERSION 0.7
FIELDS x y z rgba
SIZE 4 4 4 4
TYPE F F F U
COUNT 1 1 1 1
WIDTH 332
HEIGHT 1
VIEWPOINT 0 0 0 1 0 0 0
POINTS 332
DATA ascii
0.17034656 -0.087784432 0.85100001 4285691749
0.17009787 -0.085048936 0.85100001 4285558625
0.17308205 -0.081318721 0.85100001 4287003759
0.17929907 -0.079329275 0.85100001 4287466120
0.17294353 -0.087594785 0.85400003 4287073139
0.17294353 -0.085348763 0.85400003 4286479720
0.17518955 -0.085348763 0.85400003 4287795087
0.17518955 -0.08310274 0.85400003 4286806905
0.17743558 -0.081605397 0.85400003 4287400053
0.17793469 -0.079109818 0.85400003 4286675836
0.17743558 -0.076364681 0.85400003 4285424230
0.18117896 -0.076364681 0.85400003 4286084214
0.18392408 -0.076115124 0.85400003 4286413437
0.18716833 -0.07561601 0.85400003 4286347645
0.18492231 -0.074118659 0.85400003 4286412404
0.18716833 -0.074118659 0.85400003 4285951596
0.17635028 -0.081796512 0.85600007 4286610039
0.17935199 -0.076543525 0.85600007 4286411125
0.18435483 -0.073291682 0.85600013 4286413170
0.18760666 -0.07279139 0.85600007 4286215029
0.19030154 -0.07597018 0.85800004 4286216826
0.19325824 -0.076649882 0.85999995 4286546050
0.17619598 -0.11224841 0.77600002 4286811025
0.17755656 -0.11224841 0.77600002 4286483106
0.17619598 -0.11020752 0.77600002 4286942876
0.17777748 -0.10992348 0.77400005 4286547353
0.1823186 -0.10000312 0.77600002 4286813355
0.1823186 -0.097962238 0.77600002 4287536821
0.18435949 -0.097962245 0.77600002 4286220959
0.1823186 -0.095921353 0.77600002 4289574603
0.19048214 -0.090479009 0.77600002 4287205290
0.1932033 -0.090479009 0.77600002 4286678429
0.19048214 -0.089118429 0.77600002 4288258495
0.1932033 -0.089118429 0.77600002 4286942630
0.175286 -0.11185566 0.77800006 4288390321
0.175286 -0.10980952 0.77800006 4288784818
0.19438331 -0.087984025 0.77800006 4288326065
0.19438331 -0.086619928 0.77800006 4288854467
0.1704845 -0.11707971 0.78100002 4283984243
0.17801593 -0.11776438 0.78100002 4287010467
0.17276675 -0.11479744 0.78099996 4286350483
0.17527723 -0.11502567 0.78100002 4287666864
0.17778771 -0.1152539 0.78099996 4286747041
0.17459254 -0.11228697 0.78100002 4288193715
0.17459254 -0.11023294 0.78100002 4288588983
0.17596191 -0.10612488 0.78100002 4288588207
0.17801593 -0.10612488 0.78100002 4288062130
0.17596191 -0.10407085 0.78100002 4287403157
0.17856935 -0.10370127 0.78042859 4288325552
0.18138123 -0.10232607 0.78075004 4287272357
0.17870061 -0.099962786 0.78100002 4288389812
0.18063848 -0.099898785 0.78049999 4288916932
0.17870061 -0.097908765 0.78100002 4287665569
0.18069656 -0.097192742 0.78074998 4289377218
0.1853098 -0.096415795 0.78000003 4286943407
0.18227418 -0.094672985 0.78066665 4289507523
0.18474434 -0.094424449 0.78050005 4289376973
0.1872934 -0.094216533 0.78066665 4287470779
0.18554737 -0.092431352 0.78100002 4290822095
0.18748087 -0.09168794 0.78049999 4290165458
0.18986847 -0.091857135 0.78000003 4287732670
0.19214779 -0.092312999 0.78000003 4286612879
0.18828608 -0.089692645 0.78100002 4290494931
0.19003093 -0.088741459 0.78066665 4290954719
0.19283159 -0.088210195 0.78000003 4290494932
0.19056833 -0.086497486 0.78099996 4290756814
0.19299643 -0.08554747 0.78066665 4290364371
0.19307882 -0.082161203 0.78100002 4289309378
0.19376349 -0.080107167 0.78100002 4289309126
0.16998129 -0.11905572 0.78500003 4284179306
0.17092107 -0.11600667 0.78300005 4284640370
0.17229395 -0.11600667 0.78300005 4286153865
0.17366679 -0.11257452 0.78300005 4286022546
0.1732004 -0.10996906 0.78400004 4286152323
0.17518751 -0.10877651 0.78366667 4287994791
0.17778537 -0.10914237 0.78300005 4287337635
0.17538287 -0.10673987 0.78300005 4288257446
0.17778537 -0.10776951 0.78300005 4288192165
0.17579533 -0.10291102 0.78433341 4287401375
0.17778537 -0.10227807 0.78300005 4288586419
0.17594963 -0.10034677 0.78400004 4287466656
0.17778537 -0.10021879 0.78300005 4288322738
0.17625414 -0.097867854 0.78433341 4287597983
0.178243 -0.097244255 0.78300005 4288059305
0.17900451 -0.095117457 0.78433341 4288192683
0.18114243 -0.094578594 0.78366667 4288784821
0.1819098 -0.09244597 0.78500003 4288915634
0.18411987 -0.091371752 0.78366667 4289309625
0.18602253 -0.09129519 0.78300005 4290362567
0.18760003 -0.088645898 0.78385717 4289705154
0.18876825 -0.085803755 0.78300005 4289179839
0.19026166 -0.084828019 0.78350002 4289311166
0.19030184 -0.083128743 0.78366667 4289113278
0.17869361 -0.094521329 0.78700006 4288454581
0.18007347 -0.093141451 0.78700006 4288323746
0.18214329 -0.091071635 0.78700006 4288718250
0.185133 -0.088541873 0.787 4289046712
0.18697284 -0.087621957 0.78700006 4289441217
0.18789275 -0.085782133 0.787 4288982462
0.18835272 -0.08348234 0.78700006 4289179839
0.1724491 -0.11150323 0.79000002 4285558642
0.17303164 -0.10935672 0.7895 4286019184
0.17361419 -0.10652026 0.78900003 4286546812
0.17499757 -0.10652026 0.78900003 4286612365
0.17499757 -0.10444519 0.78900003 4286941078
0.17798963 -0.096266769 0.79000002 4287730340
0.17856868 -0.09412989 0.7895 4288059818
0.17937475 -0.092111364 0.79000002 4288849831
0.18106848 -0.091110796 0.78933334 4288784295
0.18214503 -0.089341097 0.79000002 4289244072
0.18375897 -0.088305749 0.78900003 4289178292
0.1849153 -0.085878268 0.79000002 4289112505
0.18660434 -0.085574947 0.78933334 4288719546
0.17844026 -0.093733199 0.79200006 4288191143
0.1798289 -0.090955921 0.79200006 4288522159
0.18214065 -0.088986054 0.79300004 4288980647
0.18399481 -0.086790003 0.79200006 4289178040
0.18816073 -0.084012724 0.79200006 4289375933
0.17096755 -0.11583923 0.79600006 4284244855
0.17306101 -0.11583924 0.79600006 4284903037
0.17515451 -0.11514141 0.79600006 4286021260
0.17282839 -0.11328053 0.79600006 4285296504
0.17515451 -0.11374576 0.79600006 4285889923
0.17329364 -0.10955879 0.79600006 4286018930
0.17934147 -0.092810951 0.79600006 4288849831
0.170424 -0.11501867 0.80000001 4284639076
0.17182666 -0.11431734 0.80000001 4285098874
0.17182666 -0.11291467 0.80000001 4285229681
0.17279625 -0.10913448 0.79800004 4286216057
0.17322934 -0.107304 0.80000001 4285691766
0.17463198 -0.107304 0.80000001 4286020982
0.16965516 -0.11474603 0.80300003 4284113763
0.16985154 -0.11243723 0.80260003 4284834662
0.17225623 -0.11179078 0.80200005 4285293930
0.16965516 -0.10911432 0.80300003 4285558646
0.17165966 -0.1097499 0.80250001 4285558386
0.17317498 -0.10700242 0.80300003 4285692536
0.17577168 -0.10616609 0.80200005 4286482051
0.17599083 -0.10489053 0.80300003 4286612867
0.17810273 -0.10489053 0.80300003 4287202972
0.17951065 -0.096442975 0.80300003 4287796385
0.17951065 -0.095035054 0.80300003 4287731625
0.18150902 -0.091458693 0.80250001 4288652974
0.1823265 -0.089403339 0.80300003 4288915121
0.1840506 -0.088391088 0.80233335 4288783537
0.18514235 -0.086587489 0.80300003 4289046970
0.18701959 -0.085648872 0.80300003 4289178041
0.18936613 -0.08517956 0.80300003 4289047224
0.17007773 -0.11079752 0.80500007 4285492335
0.17195964 -0.1070337 0.80500007 4285889148
0.17431203 -0.10515179 0.80500007 4286283396
0.17572346 -0.10374035 0.80500007 4286611332
0.17784062 -0.10374035 0.80500007 4287203219
0.17995776 -0.099506058 0.80500007 4287794850
0.17901681 -0.097624145 0.80500007 4287532960
0.17901681 -0.094330795 0.80500007 4287863213
0.17925204 -0.09244889 0.80500007 4288125614
0.18136919 -0.091037452 0.80500007 4288849325
0.1820749 -0.088920303 0.80500007 4288915121
0.18466252 -0.085862197 0.80500007 4289112763
0.18560348 -0.083980285 0.80500007 4288915123
0.18772064 -0.083980285 0.80500007 4289176760
0.17333016 -0.10541303 0.80700004 4286020480
0.17521673 -0.1030548 0.80699998 4286940557
0.17850423 -0.10271026 0.80800003 4287466135
0.17583273 -0.10078014 0.80766672 4287007121
0.17828244 -0.10046074 0.80700004 4287400857
0.17637831 -0.097750962 0.80800003 4287336337
0.17779501 -0.097750962 0.80800003 4287665559
0.17659661 -0.095035926 0.80900002 4287401616
0.17757496 -0.094800979 0.80700004 4287993752
0.17814875 -0.091375843 0.80800009 4288388268
0.18040484 -0.091263629 0.80700004 4288388786
0.17885709 -0.088542454 0.80800009 4288388267
0.18115036 -0.088237025 0.80779999 4288585648
0.18323474 -0.08701881 0.80700004 4288914869
0.18227039 -0.085816018 0.80900002 4288849591
0.18385775 -0.084730126 0.80766672 4288783796
0.17418928 -0.1038026 0.81100005 4286282884
0.17490026 -0.10095869 0.81100005 4286810252
0.17561124 -0.098114781 0.81100005 4286809740
0.17561124 -0.095270872 0.81100005 4287204750
0.17703319 -0.093137942 0.81100005 4287599261
0.17703319 -0.091005012 0.81100005 4287993254
0.17774418 -0.088161111 0.81100005 4288520360
0.18201002 -0.085317194 0.81100005 4288915388
0.17176792 -0.10904769 0.81300002 4286085242
0.17233557 -0.10632652 0.81400001 4286019710
0.17304918 -0.10347209 0.81400001 4286217097
0.17361945 -0.10074215 0.81500006 4286743445
0.17461886 -0.099782199 0.81300002 4286876045
0.17461886 -0.096931279 0.81300002 4286875788
0.17533158 -0.094080359 0.81300002 4287599766
0.1760443 -0.091229439 0.81300002 4287862430
0.17790635 -0.087881453 0.81500006 4288388774
0.17933533 -0.086452484 0.81500006 4288849325
0.18094371 -0.085359573 0.81366664 4288784317
0.18775426 -0.080670573 0.81433338 4289375926
0.1740455 -0.099556893 0.81700003 4287005588
0.17834294 -0.086664632 0.81700003 4288520617
0.17201866 -0.10868125 0.82100004 4285559925
0.17201866 -0.10652201 0.82100004 4286151037
0.17252713 -0.10351768 0.82000005 4286348672
0.17345814 -0.10076407 0.82100004 4286545808
0.1746846 -0.097764999 0.82000005 4287335836
0.17561737 -0.095006123 0.82100004 4287665565
0.17633711 -0.092127144 0.82100004 4287862430
0.1777766 -0.089967921 0.82100004 4288323485
0.18595941 -0.082568854 0.81900007 4288915384
0.19121766 -0.079794198 0.82000005 4288915384
0.19289121 -0.078452028 0.82100004 4289111216
0.18785301 -0.075573049 0.82100004 4288255895
0.19025214 -0.076052882 0.82100004 4287728791
0.19265132 -0.076532714 0.82100004 4287860382
0.18785301 -0.07413356 0.82100004 4287598479
0.17099471 -0.1067815 0.82300001 4285361265
0.17099471 -0.10461701 0.82300001 4285558631
0.17532368 -0.093794562 0.82300001 4287402652
0.17604518 -0.09090858 0.82300001 4287862940
0.17820968 -0.088744089 0.82300001 4288323485
0.17965266 -0.085858107 0.82300001 4287994532
0.19047511 -0.079364628 0.82300001 4289243578
0.18975362 -0.077200145 0.82300001 4288715679
0.16747576 -0.1094755 0.82699996 4284307788
0.16965078 -0.10947549 0.82700008 4284768117
0.17217059 -0.11035392 0.82633334 4285165422
0.16747576 -0.10657549 0.82700002 4285232243
0.16965078 -0.10585049 0.82700002 4285559411
0.17234129 -0.10355011 0.82600003 4286150265
0.17313612 -0.10069305 0.82633334 4286874242
0.17430325 -0.099085256 0.82500005 4287006871
0.17451453 -0.0970321 0.82600003 4287138968
0.1747258 -0.094250433 0.82700002 4287271066
0.17523777 -0.091240838 0.82600003 4287534235
0.1761758 -0.089175403 0.82700002 4287928991
0.17782162 -0.088066138 0.82566673 4288585884
0.17835082 -0.086275391 0.82700002 4288585122
0.18487585 -0.083375379 0.82700002 4289375935
0.1868238 -0.082551315 0.82600003 4289178040
0.188045 -0.080280751 0.82500005 4289244859
0.1897203 -0.078929812 0.82600003 4289178290
0.18922587 -0.077575356 0.82700002 4288912801
0.16788079 -0.10537972 0.82900006 4285822320
0.17078783 -0.10319945 0.82900006 4286084482
0.17224133 -0.10247269 0.82900006 4286479244
0.17078783 -0.10029242 0.82900006 4286873235
0.17224133 -0.10029242 0.82900006 4286677111
0.17369485 -0.097385392 0.82900006 4287270283
0.17660187 -0.087937556 0.82900006 4288257440
0.18241592 -0.085030533 0.82900006 4288652979
0.18386944 -0.083577022 0.82900006 4288915384
0.18677646 -0.082123511 0.82900006 4289506490
0.18750322 -0.07994324 0.82900006 4289046962
0.18822998 -0.077762961 0.82900006 4288782239
0.16911557 -0.10351022 0.83150005 4286018677
0.17015137 -0.10150661 0.83300006 4285952133
0.17307243 -0.098585553 0.83300006 4286611834
0.17453295 -0.09493424 0.83300006 4287271062
0.17505193 -0.091903597 0.83200002 4287533975
0.17599347 -0.089092128 0.83300006 4287928733
0.17599347 -0.086901337 0.83300006 4288257188
0.17848496 -0.085721344 0.83100003 4288257447
0.18139899 -0.08523567 0.83100003 4287929257
0.17891453 -0.083980285 0.83300006 4288520876
0.18110532 -0.083980285 0.83300006 4288257961
0.18402638 -0.083250016 0.83300006 4288849585
0.18621716 -0.081789494 0.83300006 4289242806
0.18767768 -0.078868441 0.83300006 4288914598
0.16763182 -0.10394637 0.83500004 4285689444
0.16982786 -0.10101829 0.83500004 4286346369
0.17055988 -0.098822251 0.83500004 4286742150
0.17251192 -0.097846232 0.83500004 4286545795
0.17275593 -0.095162168 0.83500004 4286679176
0.17348795 -0.092966117 0.83500004 4287139216
0.17495197 -0.090770066 0.83500004 4287665557
0.17495197 -0.087842003 0.83500004 4288256150
0.17788005 -0.084913932 0.83500004 4287862948
0.17885607 -0.082229875 0.83500004 4288586410
0.18129613 -0.082229868 0.83500004 4288783788
0.18422419 -0.081741862 0.83500004 4288717232
0.18666424 -0.079057798 0.83500004 4288846767
0.16878095 -0.10032836 0.83780003 4286346876
0.1696347 -0.096934788 0.83766669 4286677891
0.16995569 -0.094159082 0.83780003 4287072648
0.17243595 -0.093188792 0.83700001 4287138962
0.16990589 -0.091940418 0.83900005 4286875285
0.17289355 -0.091221198 0.83780003 4287402139
0.17337573 -0.088892251 0.83800006 4287270033
0.17431904 -0.087527275 0.83900005 4287729295
0.17620957 -0.085167721 0.83749998 4288322981
0.18270873 -0.081448466 0.83700001 4288389038
0.18502006 -0.079294056 0.83749998 4288978605
0.18784511 -0.07704585 0.83700001 4288716194
0.19004643 -0.07704585 0.83700001 4288453525
0.16883636 -0.093634129 0.84100002 4287334801
0.17178546 -0.090685025 0.84100002 4287138973
0.17252274 -0.088473201 0.84100002 4287466397
0.16963938 -0.092597909 0.84500003 4287072665
0.17112094 -0.091116354 0.84500003 4287073680
0.17112094 -0.089634784 0.84500003 4287139964
0.17515011 -0.085727483 0.84300005 4288256671
0.17556565 -0.083708517 0.84500003 4288650399
0.1782459 -0.083083749 0.84366673 4288716459
0.16855583 -0.097272307 0.84700006 4286545791
0.16855583 -0.095787235 0.84700006 4286481027
0.17004091 -0.091332011 0.84700006 4287139729
0.17895134 -0.082421571 0.84700006 4289044401
0.1841491 -0.077966355 0.84700006 4287860891
0.16915283 -0.093890123 0.85000002 4286743685
0.16971534 -0.090697885 0.85033339 4286809970
0.17308205 -0.088779159 0.85100001 4287072906
0.17681226 -0.082810804 0.85100001 4288057483
0.1785212 -0.08168751 0.84966666 4288518292
0.18182068 -0.078986786 0.85000002 4287729556
0.17518955 -0.087594785 0.85400003 4287926692
0.19574739 -0.088666067 0.77800006 4286942876
0.19642943 -0.086619928 0.77800006 4287406255
0.19650221 -0.084899902 0.78100008 4291021528
0.19969736 -0.084671676 0.78099996 4290428880
0.19650221 -0.082161196 0.78100008 4289703879
0.19969736 -0.082389422 0.78099996 4290691282
0.20197961 -0.082845874 0.78100002 4291349988
0.19581753 -0.080107167 0.78100002 4288782526
0.17135765 -0.11905572 0.78500003 4284179569
0.19499785 -0.078843892 0.80300003 4288783800
0.19618924 -0.081863135 0.80500007 4289113787
0.19336638 -0.076923124 0.80500007 4287600040
0.19030944 -0.084188931 0.80700004 4289309628
0.18711925 -0.076481275 0.84700006 4287928478
0.18934685 -0.076481275 0.84700006 4287731616
0.18480046 -0.076752163 0.85000002 4287072396
0.1684515 -0.09133815 0.85400003 4284769616
