# .PCD v0.7 - Point Cloud Data file format
VERSION 0.7
FIELDS x y z rgba
SIZE 4 4 4 4
TYPE F F F U
COUNT 1 1 1 1
WIDTH 528
HEIGHT 1
VIEWPOINT 0 0 0 1 0 0 0
POINTS 528
DATA ascii
0.25555709 0.0477871 0.79000002 4294967295
0.25555709 0.04917223 0.79000002 4294967295
0.25278682 0.052635066 0.79000002 4294967295
0.25063002 0.055387579 0.78974998 4294967295
0.25278682 0.055405334 0.79000002 4294967295
0.2505509 0.05813878 0.7895 4294967295
0.25278682 0.058175601 0.79000002 4294967295
0.25038072 0.06131459 0.78939998 4294967295
0.25278682 0.060945868 0.79000002 4294967295
0.24762502 0.065018862 0.78900003 4294967295
0.25072104 0.064652763 0.78960001 4294967295
0.25278682 0.064408697 0.79000002 4294967295
0.24778193 0.067829013 0.7895 4294967295
0.25047827 0.06764067 0.79000002 4294967295
0.24793887 0.070641801 0.79000002 4294967295
0.25001657 0.070641801 0.79000002 4294967295
0.24770801 0.073181204 0.79000002 4294967295
0.2472463 0.076182336 0.79000002 4294967295
0.2472463 0.078952603 0.79000002 4294967295
0.25967568 0.043047842 0.79200006 4294440181
0.2631157 0.04385262 0.79400003 4294967295
0.25481546 0.04651944 0.79200006 4294967295
0.25703725 0.046241712 0.79200006 4294967295
0.25919938 0.0465586 0.79266673 4294967295
0.26241967 0.045940842 0.79400009 4294967295
0.26520392 0.045244765 0.79400003 4294967295
0.25481546 0.050685361 0.79200006 4294967295
0.2568984 0.049991041 0.79200006 4294967295
0.25861228 0.050055034 0.79300004 4294967295
0.26172358 0.048725136 0.79400003 4294967295
0.25481546 0.052768324 0.79200006 4294967295
0.25620407 0.052768324 0.79200006 4294967295
0.2582432 0.052901573 0.79400003 4294967295
0.25481546 0.055545606 0.79200006 4294967295
0.25652757 0.05561661 0.79300004 4294967295
0.25481546 0.058322884 0.79200006 4294967295
0.25481546 0.061100163 0.79200006 4294967295
0.25685108 0.061950523 0.79400003 4294967295
0.25481546 0.063877441 0.79200006 4294967295
0.25685108 0.063342676 0.79400003 4294967295
0.25317726 0.068332665 0.79266673 4294967295
0.25545892 0.067519113 0.79399997 4294967295
0.25305247 0.070910059 0.7930001 4294967295
0.25545892 0.070999473 0.79400003 4294967295
0.25018665 0.07382936 0.79200006 4294967295
0.25267461 0.07378377 0.79400003 4294967295
0.25027168 0.076471634 0.79300004 4294967295
0.25267461 0.075871997 0.79400003 4294967295
0.25027168 0.079252422 0.79300004 4294967295
0.24787225 0.081929766 0.79200006 4294967295
0.2492609 0.081235446 0.79200006 4294967295
0.24648362 0.084012724 0.79200006 4294967295
0.26587197 0.04675439 0.79600006 4294967295
0.26726761 0.04675439 0.79600006 4294967295
0.26028934 0.050941348 0.79600006 4294967295
0.26168501 0.050941348 0.79600006 4294967295
0.26517415 0.048847869 0.79600006 4294967295
0.26726761 0.04815004 0.79600006 4294967295
0.26028934 0.053034827 0.79600006 4294967295
0.26168501 0.053034827 0.79600006 4294967295
0.25959152 0.055826139 0.79600006 4294967295
0.26168501 0.05512831 0.79600006 4294967295
0.25749806 0.058617443 0.79600006 4294967295
0.25959152 0.058617443 0.79600006 4294967295
0.25749806 0.060710922 0.79600006 4294967295
0.2588937 0.061408751 0.79600006 4294967295
0.25749806 0.064897887 0.79600006 4294967295
0.25959152 0.064200059 0.79600006 4294967295
0.25749806 0.066991359 0.79600006 4294967295
0.2588937 0.06629353 0.79600006 4294967295
0.25749806 0.070480496 0.79600006 4294967295
0.25470674 0.073969632 0.79600006 4294967295
0.25610238 0.073969632 0.79600006 4294967295
0.25424153 0.076993547 0.79600006 4294967295
0.25610238 0.07676094 0.79600006 4294967295
0.25400892 0.079552241 0.79600006 4294967295
0.25610238 0.078854412 0.79600006 4294967295
0.25145021 0.082576156 0.79600006 4294967295
0.2533111 0.082343549 0.79600006 4294967295
0.24772847 0.085832678 0.79600006 4293058014
0.24982196 0.084437035 0.79600006 4294967295
0.26861066 0.049794663 0.80000001 4294967295
0.27001333 0.049794663 0.80000001 4294967295
0.26374164 0.052468497 0.79800004 4294967295
0.26549062 0.052118707 0.79800004 4294967295
0.26814312 0.052132443 0.80000001 4294967295
0.26304206 0.0559664 0.79800004 4294967295
0.2653378 0.056340441 0.80000001 4294967295
0.26755866 0.055054665 0.80000001 4294967295
0.26234248 0.058764718 0.79800004 4294967295
0.265104 0.058912002 0.80000001 4294967295
0.26720801 0.058912002 0.80000001 4294967295
0.26094335 0.061563041 0.79800004 4294967295
0.26234248 0.061563041 0.79800004 4294967295
0.2648702 0.061483551 0.80000001 4294967295
0.26234248 0.064361364 0.79800004 4294967295
0.26440266 0.064522669 0.80000001 4294967295
0.26047698 0.067392878 0.79800004 4294967295
0.26234248 0.067159683 0.79800004 4294967295
0.26440266 0.067327991 0.80000001 4294967295
0.26024377 0.069958001 0.79800004 4294967295
0.26234248 0.069958001 0.79800004 4294967295
0.26440266 0.070133328 0.80000001 4294967295
0.2597191 0.073630795 0.79799998 4294967295
0.26234248 0.07275632 0.79800004 4294967295
0.26440266 0.072938666 0.80000001 4294967295
0.25884461 0.076953799 0.79800004 4294967295
0.26243892 0.076725863 0.80000001 4294967295
0.25674587 0.080451697 0.79800004 4294967295
0.25900722 0.079802528 0.79850006 4294967295
0.26159731 0.079250664 0.80000001 4294967295
0.25620717 0.082602605 0.79850006 4294967295
0.25933158 0.082706049 0.79949999 4294967295
0.25044966 0.086048342 0.79800004 4293190630
0.25324795 0.085348763 0.79800004 4294506491
0.25602758 0.08518628 0.79866672 4294375167
0.25879201 0.084861331 0.80000001 4294967295
0.24975006 0.087447502 0.79800004 4292004809
0.25356531 0.088258415 0.79900002 4292070100
0.25598666 0.088367999 0.80000001 4291873237
0.27156112 0.052060854 0.80250001 4294638330
0.27384174 0.05279725 0.80300003 4291742186
0.26928219 0.056246936 0.80200005 4294967295
0.27138656 0.055289965 0.80239999 4294967295
0.2745457 0.05490914 0.80300003 4292663525
0.26928219 0.059059281 0.80200005 4294967295
0.27159995 0.058651626 0.80220002 4294967295
0.26646984 0.062574714 0.80200005 4294967295
0.26857913 0.061871625 0.80200005 4294967295
0.27139145 0.061871625 0.80200005 4294967295
0.26646984 0.064683974 0.80200005 4294967295
0.26866305 0.064704359 0.80225003 4294967295
0.26646984 0.067496322 0.80200005 4294967295
0.26891398 0.067580476 0.80300003 4294967295
0.26663595 0.070352063 0.80250001 4294967295
0.26891398 0.070396334 0.80300003 4294967295
0.26646984 0.073121011 0.80200005 4294967295
0.26874697 0.073166594 0.80250001 4294967295
0.26593289 0.075980701 0.80250001 4294967295
0.26891398 0.076028042 0.80300003 4294440951
0.26318878 0.080386244 0.80200005 4294967295
0.26604304 0.07953164 0.80283332 4294506744
0.2687732 0.079266265 0.80300009 4292532700
0.26303661 0.082990311 0.80225003 4294375158
0.26609814 0.08306767 0.80300003 4291546321
0.25943899 0.086010933 0.80200005 4292599280
0.26257834 0.085648872 0.80300003 4292270056
0.26539418 0.08517956 0.80300003 4291281354
0.25954625 0.088625737 0.80233335 4291413200
0.27522951 0.057163049 0.80500007 4292730335
0.26323232 0.086803153 0.80500007 4291150547
0.26464376 0.086803153 0.80500007 4291611098
0.26323232 0.088214584 0.80500007 4291083979
0.24470836 0.043797389 0.79300004 4291018955
0.24715395 0.042852055 0.79266673 4290295234
0.23676313 0.047908079 0.79200006 4292137444
0.23884609 0.047908079 0.79200006 4292071394
0.24192844 0.046577297 0.7930001 4291676122
0.24416919 0.045593679 0.79200006 4291281876
0.22993623 0.050349306 0.79399997 4293059311
0.23545197 0.048814554 0.79320002 4292073448
0.23815176 0.049296718 0.79200006 4292072934
0.24354151 0.043963082 0.79600006 4290887109
0.24633284 0.042567428 0.79600006 4290426306
0.23656325 0.04675439 0.79600006 4292138725
0.23888934 0.046289172 0.79600006 4291545823
0.24121542 0.04582395 0.79600006 4291478749
0.23028281 0.048847869 0.79600006 4292927212
0.23307413 0.04815004 0.79600006 4292533481
0.24125865 0.041378666 0.80000001 4291019217
0.24435623 0.041309699 0.79866672 4290558407
0.24765131 0.041275218 0.79800004 4290229182
0.24975006 0.041275218 0.79800004 4290163650
0.23634933 0.044183999 0.80000001 4291545555
0.2389542 0.044147179 0.79933333 4291348699
0.24165666 0.043427434 0.79900002 4290690518
0.24435623 0.042710025 0.79866672 4290427077
0.23354398 0.046989333 0.80000001 4292532970
0.23550028 0.046258628 0.79950005 4292203749
0.23785719 0.0454727 0.79800004 4291480025
0.22942017 0.048777729 0.79866672 4292861418
0.22876266 0.051069338 0.79800004 4293585142
0.24216339 0.038717981 0.80300003 4290163396
0.24497925 0.038717981 0.80300003 4290097090
0.24709111 0.038717981 0.80300003 4290293957
0.23582771 0.041533839 0.80300003 4291347930
0.23856884 0.041168924 0.80274999 4291084748
0.24125837 0.040092599 0.80233335 4290558410
0.24467415 0.040075943 0.80200005 4290294724
0.24678342 0.040075943 0.80200005 4290360002
0.23301186 0.044349689 0.80300003 4291874788
0.2354283 0.04348319 0.80260003 4291545311
0.23904946 0.042888287 0.80200005 4291019729
0.22972669 0.046696234 0.80300003 4292466406
0.23223534 0.046446897 0.80274999 4292400615
0.23412786 0.045700636 0.80200005 4292136677
0.22850318 0.048512984 0.80200005 4292993003
0.23923796 0.038814418 0.80500007 4290886607
0.24135512 0.038108703 0.80500007 4290295494
0.24417798 0.037402987 0.80500007 4290097595
0.24629514 0.037402987 0.80500007 4289899701
0.23359223 0.041637283 0.80500007 4291743201
0.23547412 0.040696327 0.80500007 4291084502
0.23782654 0.040225849 0.80500007 4290623941
0.22794649 0.044460151 0.80500007 4292335077
0.23006363 0.043754432 0.80500007 4292401127
0.23265128 0.043519195 0.80500007 4291743459
0.22324173 0.046812546 0.80500007 4293124852
0.22653507 0.046577305 0.80500013 4292795122
0.22935793 0.045871586 0.80500007 4292005342
0.23587945 0.038249843 0.80800003 4290886864
0.23837006 0.038099058 0.80779999 4290557898
0.24124727 0.037495911 0.80700004 4290295238
0.22695145 0.041844178 0.80900002 4292400104
0.22950432 0.041083232 0.80800003 4292071648
0.2321935 0.041058246 0.8075 4291480026
0.23446274 0.039666533 0.80800003 4291151059
0.2219869 0.044681072 0.80900002 4292862187
0.22416572 0.044171434 0.8083334 4292532712
0.22653024 0.043889876 0.8075 4292466408
0.22851281 0.04315567 0.80700004 4292466153
0.22143811 0.04669302 0.80700004 4293059826
0.22285305 0.04598555 0.80700004 4292599790
0.21860823 0.049522899 0.80700004 4294505727
0.22002319 0.048815429 0.80700004 4294044926
0.23533328 0.037681762 0.81100005 4290755278
0.24173208 0.036259811 0.81100005 4289965507
0.22609058 0.041236646 0.81100005 4292136677
0.22869749 0.039577704 0.81100005 4291874006
0.23248939 0.039103717 0.81100005 4291216847
0.22395766 0.04336958 0.81100005 4292664038
0.22063977 0.047161449 0.81100005 4293651444
0.21826984 0.049768366 0.81100005 4294440446
0.21755886 0.052612275 0.81100005 4294901247
0.24090274 0.03492377 0.81300002 4290031548
0.22792019 0.037867617 0.81500006 4291412703
0.22949906 0.037774689 0.81300002 4291348178
0.23263577 0.03710667 0.81400001 4291019214
0.2351556 0.036854189 0.81366664 4290623698
0.23805182 0.03634923 0.81300002 4290623955
0.24019001 0.03634923 0.81300002 4290031300
0.22407162 0.040675581 0.81400001 4292005606
0.22621244 0.039604731 0.81400001 4292005095
0.22165902 0.044901989 0.81300002 4293190634
0.22322081 0.04279054 0.81349999 4292664039
0.2179879 0.047252506 0.81420004 4293848825
0.22011845 0.045450788 0.81433338 4293454064
0.21738265 0.049891099 0.81300002 4294572031
0.21738265 0.052029289 0.81300002 4294703871
0.22704703 0.037960544 0.81700003 4291478496
0.22919574 0.03652807 0.81700003 4291150040
0.23134445 0.03652807 0.81700003 4291282135
0.22346583 0.040109254 0.81700003 4291941352
0.22060089 0.042974204 0.81700003 4292993263
0.22274961 0.042257965 0.81700003 4292467179
0.22599941 0.03526742 0.82100004 4291216594
0.22945744 0.034886073 0.82050002 4290820561
0.23253778 0.034369368 0.82020009 4290689737
0.23578827 0.034504723 0.82000005 4290558151
0.23794487 0.034504727 0.82000005 4290360517
0.21736249 0.038146395 0.82100004 4291940833
0.22048138 0.037666567 0.82100004 4292137187
0.22333345 0.037533429 0.82020009 4291808984
0.22630405 0.036998842 0.81950003 4291216089
0.21772748 0.040239584 0.8196668 4292796139
0.22114092 0.040207442 0.81900007 4292401896
0.2232949 0.039489452 0.81900007 4292664299
0.23015743 0.032467347 0.82300001 4290755024
0.23232192 0.032467347 0.82300001 4290623687
0.22149947 0.035353336 0.82300001 4291283680
0.22390445 0.034872338 0.82300001 4291479764
0.22654994 0.033910342 0.82300001 4291281867
0.22871442 0.033910342 0.82300001 4290755537
0.21572751 0.038239323 0.82300001 4292598247
0.21861349 0.036796328 0.82300001 4292467175
0.22005647 0.036796328 0.82300001 4292269545
0.21428449 0.039682314 0.82300001 4292795888
0.22982605 0.029725136 0.82700002 4290228932
0.23127607 0.029725136 0.82700002 4290228932
0.22330102 0.03262515 0.82700002 4290887120
0.22641583 0.032013588 0.82620013 4290821324
0.22915745 0.031632181 0.82633334 4290689486
0.23234969 0.031124882 0.82566673 4290492102
0.23505627 0.032546252 0.82500005 4290294458
0.218226 0.035525165 0.82700002 4292072680
0.22026733 0.034778684 0.82650006 4291611874
0.22276101 0.033992749 0.82500005 4291282134
0.21242598 0.038425177 0.82700002 4292467177
0.21466906 0.037910867 0.82633334 4292730090
0.21723711 0.03693046 0.82600003 4292401381
0.21335876 0.03977875 0.82500005 4293125102
0.22384107 0.029070267 0.82900006 4290623685
0.22699034 0.029312519 0.82900006 4290623684
0.22892834 0.029070266 0.82900006 4290360254
0.22117628 0.032219548 0.82900006 4291215829
0.22384107 0.031250536 0.82900006 4291018447
0.20857917 0.035611078 0.82900006 4292860397
0.21148618 0.035611078 0.82900006 4292531688
0.21511999 0.035611078 0.82900006 4292400868
0.21778476 0.034642067 0.82900006 4291874531
0.2111955 0.037645996 0.82900012 4293059055
0.21439323 0.03706459 0.82900006 4293190382
0.21834874 0.029940799 0.83300006 4290953420
0.22001001 0.0291404 0.83100003 4290886858
0.22219554 0.029140402 0.83100003 4290755013
0.20958558 0.032861851 0.83300006 4292269030
0.21177638 0.032861851 0.83300006 4291613415
0.21469742 0.032861851 0.83300006 4291612634
0.21786189 0.032375012 0.833 4291480023
0.21976717 0.031811602 0.83100003 4291281618
0.20593426 0.035782903 0.83300006 4293254892
0.20827758 0.034753114 0.83166671 4292926702
0.21126789 0.03423997 0.83100003 4292269039
0.21418193 0.03423997 0.83100003 4292401116
0.21636747 0.03423997 0.83100003 4292006628
0.20862475 0.032940749 0.83500004 4292532202
0.21155283 0.031476717 0.83500004 4291743199
0.21484688 0.031110708 0.83500004 4291348440
0.21740896 0.0307447 0.83500004 4291282384
0.20496467 0.0351368 0.83500004 4293124336
0.20716071 0.034404784 0.83500004 4293255407
0.21719593 0.02861703 0.83700001 4291150799
0.21939722 0.02861703 0.83700001 4290887881
0.20863877 0.031589806 0.83800006 4292334824
0.21141781 0.030621676 0.83833337 4291610843
0.21426083 0.030084569 0.83700001 4291282388
0.20256734 0.03422524 0.83780003 4293124844
0.20537408 0.033535127 0.83766669 4292795370
0.20765691 0.033019651 0.83700001 4292794602
0.20225956 0.031211378 0.84100002 4293190383
0.20471716 0.031211378 0.84100002 4292467176
0.20791201 0.030965619 0.84100002 4291874785
0.21012385 0.030228341 0.84100002 4291610333
0.19832742 0.03317745 0.84100002 4294967295
0.20001149 0.02889055 0.84500003 4293781238
0.20322156 0.028396696 0.84500003 4293650681
0.20569405 0.028115578 0.84399998 4292861672
0.2089009 0.028149767 0.84500003 4291479768
0.21161711 0.028396696 0.84500003 4291348441
0.21482715 0.02889055 0.84500003 4291282639
0.21753344 0.028115578 0.84400004 4291084754
0.22075343 0.027408984 0.84500003 4290755278
0.22371656 0.027408984 0.84500003 4290491842
0.22593892 0.027408984 0.84500003 4290557892
0.19713925 0.031334694 0.84433335 4293782007
0.19965601 0.031057231 0.84350002 4294045438
0.20175518 0.030300232 0.84300005 4294440191
0.20618938 0.030300232 0.84300005 4292204002
0.20766743 0.030300232 0.84300005 4291875040
0.1982573 0.02895893 0.84700006 4292795122
0.20196998 0.027473858 0.84700006 4292793834
0.21385056 0.027473858 0.84700006 4290953678
0.21756326 0.027473858 0.84700006 4290887377
0.20963816 0.023127344 0.85100001 4291742688
0.20292377 0.026111515 0.85100001 4292268764
0.20599474 0.025593698 0.85033339 4292663526
0.20864667 0.02533479 0.85000002 4292071907
0.21162733 0.02533479 0.85000002 4291611353
0.21444406 0.025593698 0.85033339 4291084750
0.21784465 0.026111515 0.85100001 4290755533
0.19946972 0.02753873 0.84900004 4292333538
0.21658839 0.02753873 0.84900004 4290953420
0.21412057 0.023208873 0.85400003 4291873507
0.23875315 0.084224872 0.79400003 4294967295
0.24113066 0.084778339 0.79266673 4293453284
0.24440064 0.084707044 0.79200006 4293584875
0.23051542 0.073737025 0.79600006 4294967295
0.23098063 0.076063111 0.79600006 4294967295
0.23284151 0.076993547 0.79600006 4294967295
0.23307413 0.078854412 0.79600006 4294967295
0.23865673 0.085134856 0.79600006 4293124835
0.24703065 0.087228335 0.79600006 4292399572
0.22942014 0.073517263 0.79866672 4294967295
0.23073867 0.077146664 0.80000001 4294967295
0.23156098 0.077653378 0.79800004 4294967295
0.23073867 0.079952002 0.80000001 4294967295
0.23222081 0.080052525 0.79866672 4294967295
0.23435931 0.080451697 0.79800004 4294967295
0.23255074 0.082653888 0.79900002 4294967295
0.23505889 0.082550444 0.79800004 4294967295
0.237624 0.085581958 0.79800004 4293124324
0.22850318 0.0738241 0.80200005 4294967295
0.22738016 0.075324081 0.80300003 4294967295
0.22927749 0.075957246 0.80225003 4294967295
0.22984403 0.079195872 0.80300003 4294967295
0.23131551 0.082964227 0.80200005 4294967295
0.22653507 0.075982161 0.80500007 4294967295
0.22794649 0.078334555 0.80500007 4294967295
0.22935793 0.079745986 0.80500007 4294967295
0.23029888 0.082568854 0.80500007 4294967295
0.2219869 0.075886898 0.80900002 4294967295
0.22369859 0.076454535 0.8075 4294967295
0.22639041 0.077114232 0.80700004 4294967295
0.22482379 0.079433009 0.80900002 4294967295
0.22639041 0.079236642 0.80700004 4294967295
0.22851281 0.079944111 0.80700004 4294967295
0.22695145 0.081560686 0.80900002 4294967295
0.22907913 0.081560686 0.80900002 4294967295
0.21779585 0.073704578 0.81100005 4294967295
0.2196918 0.074652553 0.81100005 4294967295
0.22063977 0.076548494 0.81100005 4294967295
0.2225357 0.077496454 0.81100005 4294967295
0.22348368 0.079392396 0.81100005 4294967295
0.22609058 0.082473293 0.81100005 4294967295
0.2289345 0.083184272 0.81100005 4294967295
0.23106742 0.083184272 0.81100005 4294967295
0.22680156 0.084606223 0.81100005 4294967295
0.2289345 0.084606223 0.81100005 4294967295
0.23106742 0.084606223 0.81100005 4294967295
0.21738265 0.074836649 0.81300002 4294967295
0.21505949 0.075735241 0.81500006 4294967295
0.21764916 0.07671316 0.81400001 4294967295
0.21978998 0.077783123 0.81400001 4294967295
0.22084303 0.079800688 0.81420004 4294967295
0.22308449 0.080538489 0.81300002 4294967295
0.22335772 0.082778662 0.81400007 4294967295
0.22593541 0.083389409 0.81300002 4294967295
0.22407162 0.084919199 0.81400001 4294966783
0.22607349 0.085937001 0.81349999 4293913327
0.21415477 0.075204849 0.81700003 4294967295
0.21797471 0.07950227 0.81700009 4294967295
0.21988466 0.080934748 0.81700003 4294967295
0.22083963 0.082844704 0.81700009 4294967295
0.22346583 0.0859484 0.81700003 4294374134
0.20944531 0.073413819 0.82100004 4294967295
0.21108907 0.073234983 0.81900007 4294967295
0.21167205 0.075991519 0.82033342 4294967295
0.21372171 0.076346271 0.81900007 4294967295
0.21472342 0.078931861 0.82100004 4294967295
0.21659367 0.079218231 0.81900007 4294967295
0.21520327 0.081330992 0.82100004 4294967295
0.21758112 0.082114734 0.82020009 4294967295
0.21794856 0.084518567 0.82050002 4294901246
0.2207514 0.085714914 0.81933337 4294242549
0.2232949 0.086876795 0.81900007 4293715180
0.22365725 0.088456541 0.82033342 4292662489
0.22688484 0.088312775 0.81900007 4292991457
0.20851253 0.073592663 0.82300001 4294967295
0.20995553 0.075757146 0.82300001 4294967295
0.21139853 0.077200145 0.82300001 4294967295
0.21284151 0.078643136 0.82300001 4294967295
0.21428449 0.080086127 0.82300001 4294967295
0.21572751 0.082972117 0.82300001 4294967295
0.22077797 0.08802259 0.82300001 4293057502
0.20662595 0.073950335 0.82700002 4294967295
0.20807594 0.073950335 0.82700002 4294967295
0.20927261 0.076758303 0.82600003 4294967295
0.21046576 0.07738775 0.82500005 4294967295
0.20952596 0.079025365 0.82700002 4294967295
0.21157253 0.079702586 0.82650006 4294967295
0.21335876 0.080280751 0.82500005 4294967295
0.21242598 0.082650378 0.82700002 4294967295
0.21421131 0.082500905 0.82550007 4294967295
0.21725933 0.085792057 0.82699996 4294769149
0.217501 0.087725401 0.82700002 4293452518
0.219868 0.088236503 0.82500005 4293123293
0.20567213 0.074129179 0.82900006 4294967295
0.20809466 0.076793946 0.82900006 4294967295
0.21003267 0.080669992 0.82900006 4294967295
0.21148619 0.082123511 0.82900006 4294967295
0.21536224 0.08551503 0.82900006 4294309112
0.21584673 0.087937556 0.82900006 4292860386
0.2047113 0.073579505 0.83100003 4294967295
0.20556298 0.076539576 0.83150005 4294967295
0.20762534 0.077950567 0.83100003 4294967295
0.20593426 0.078868441 0.83300006 4294967295
0.20860371 0.079503149 0.83200002 4294967295
0.20958559 0.082519762 0.833 4294967295
0.21136405 0.083427399 0.83233339 4294967295
0.21469742 0.086171076 0.83300006 4293979372
0.20496467 0.079057798 0.83500004 4294967295
0.20813674 0.081741862 0.83500004 4294967295
0.20862475 0.084181912 0.83500004 4294967295
0.21082079 0.085645951 0.83500004 4294967295
0.21301685 0.085645951 0.83500004 4294967295
0.21448088 0.087842003 0.83500004 4292662232
0.19700234 0.076449275 0.83850002 4294967295
0.20014797 0.079128809 0.83833337 4294967295
0.20227592 0.079491742 0.83700007 4294967295
0.20472182 0.079980925 0.83700001 4294967295
0.20324962 0.082133435 0.83900005 4294967295
0.20557791 0.082231767 0.83750004 4294967295
0.20765691 0.082916006 0.83700001 4294967295
0.20373997 0.08458519 0.83900005 4294967295
0.20594653 0.08458519 0.83900005 4294967295
0.20831148 0.085430287 0.83766669 4294967295
0.20912445 0.087318629 0.83700001 4294967295
0.21157034 0.087807812 0.83700007 4293847539
0.21352707 0.08878617 0.83700001 4292597211
0.19537832 0.076676771 0.84100002 4294967295
0.19685288 0.078888603 0.84100002 4294967295
0.1990647 0.079625875 0.84100002 4294967295
0.20201381 0.082574993 0.84100002 4294967295
0.20496291 0.086261369 0.84100002 4294967295
0.20717473 0.086261369 0.84100002 4294967295
0.20496291 0.087735921 0.84100002 4294242547
0.20791201 0.087735921 0.84100002 4294967295
0.19417846 0.076734334 0.84433335 4294967295
0.19704837 0.080004603 0.84500003 4294967295
0.19879907 0.080554277 0.84300005 4294967295
0.20025842 0.082720809 0.84500003 4294967295
0.20175518 0.083510391 0.84300005 4294967295
0.20306085 0.08561673 0.84433335 4294967295
0.20371541 0.088153213 0.84500003 4293255646
0.19602969 0.080193967 0.84700006 4294967295
0.1982573 0.082421571 0.84700006 4294967295
0.20271252 0.086876795 0.84700006 4294967295
0.19421995 0.081816085 0.85100001 4294967295
0.19639818 0.082184874 0.84966666 4294967295
0.19770147 0.084302895 0.85100001 4294967295
0.19987504 0.084668167 0.84966666 4294967295
0.20170259 0.08559335 0.84900004 4294967295
0.20292377 0.08803311 0.85100001 4294572021
0.20590796 0.090271242 0.85100001 4293320156
0.19315772 0.08310274 0.85400003 4294967295
0.19315772 0.084600091 0.85400003 4294967295
0.19615242 0.084600091 0.85400003 4294967295
0.19914711 0.086097434 0.85400003 4294967295
0.19989577 0.087594785 0.85400003 4294967295
0.20214179 0.088343456 0.85400003 4294703352
0.19661179 0.086299069 0.85600007 4294439922
0.19661179 0.087799922 0.85600007 4294110189
0.1996135 0.088550344 0.85600007 4294767859
0.20186478 0.089300774 0.85600007 4294833910
0.20486648 0.090801634 0.85600007 4294570222
0.19707115 0.08950942 0.85800004 4294109937
0.19932771 0.08950942 0.85800004 4294109156
0.20231715 0.091744222 0.8592 4294372844
