# .PCD v0.7 - Point Cloud Data file format
VERSION 0.7
FIELDS x y z rgba
SIZE 4 4 4 4
TYPE F F F U
COUNT 1 1 1 1
WIDTH 586
HEIGHT 1
VIEWPOINT 0 0 0 1 0 0 0
POINTS 586
DATA ascii
0.24125865 -0.12133067 0.80000001 4287337380
0.24336267 -0.12133067 0.80000001 4283390319
0.24160932 -0.118876 0.80000001 4287075238
0.24195999 -0.11221333 0.80000001 4287930540
0.244064 -0.11221333 0.80000001 4284639868
0.24125865 -0.10660266 0.80000001 4287534501
0.24336267 -0.10660267 0.80000001 4285691784
0.24055731 -0.10449867 0.80000001 4287402913
0.2323079 -0.13375303 0.80300003 4289246407
0.23441979 -0.13375303 0.80300003 4289245898
0.23864357 -0.12600943 0.80300003 4288718782
0.24125828 -0.12781963 0.80300003 4285101194
0.23856884 -0.12350721 0.80275005 4288390583
0.24160321 -0.12446851 0.80214292 4285956506
0.2443226 -0.1240948 0.80200005 4282732899
0.23854393 -0.12103143 0.80266666 4287863977
0.24490851 -0.12069654 0.80200005 4283126878
0.23854393 -0.11821675 0.80266666 4287931056
0.24115874 -0.11811856 0.80200005 4287338932
0.23817426 -0.11568465 0.80300003 4287600551
0.24135859 -0.11540207 0.80266666 4287666857
0.24467415 -0.11530621 0.80200005 4284377201
0.23864357 -0.11263414 0.80300003 4287535789
0.24075545 -0.11263414 0.80300003 4287536296
0.23864357 -0.10911432 0.80300003 4287007905
0.2413085 -0.10975005 0.80250001 4287272616
0.24482669 -0.10974947 0.80250001 4284310907
0.23856884 -0.10661735 0.80274999 4287206052
0.24005148 -0.10770639 0.80300003 4287074978
0.23638396 -0.10271421 0.80250001 4286680738
0.23844486 -0.10480347 0.80233335 4287008671
0.22582933 -0.1397319 0.80500007 4289511375
0.23006365 -0.13620332 0.80500007 4289379276
0.2321808 -0.13620332 0.80500007 4289510866
0.23029888 -0.13432141 0.80500007 4289116112
0.23641509 -0.13338046 0.80500007 4289179587
0.23782654 -0.13338046 0.80500007 4287470014
0.23288652 -0.13196903 0.80500007 4289180355
0.23606223 -0.13091046 0.80500007 4288850878
0.23853226 -0.1305576 0.80500013 4288193466
0.2406494 -0.1305576 0.80500007 4285562019
0.23829703 -0.12726425 0.80500007 4288785087
0.23782654 -0.12491186 0.80500007 4288521657
0.23782654 -0.11503182 0.80500007 4287204766
0.23782654 -0.11291467 0.80500007 4287141031
0.238297 -0.11032704 0.80500007 4287140261
0.23641509 -0.10515179 0.80500007 4286877604
0.23782654 -0.10797466 0.80500007 4287008931
0.23570937 -0.10303463 0.80500007 4286746276
0.22374521 -0.13948555 0.80766672 4289511377
0.22898446 -0.13984324 0.80699998 4289314255
0.22482379 -0.1368801 0.80900002 4288591050
0.22676444 -0.13676612 0.8083334 4288722632
0.22886655 -0.13689545 0.80700004 4289117389
0.23134269 -0.13795665 0.80700004 4289380050
0.22983484 -0.13345993 0.8083334 4289050313
0.23134269 -0.13229689 0.80700004 4288918727
0.23286165 -0.1307335 0.80900002 4288721345
0.23488005 -0.13017449 0.80700004 4288523709
0.23531617 -0.12758087 0.80850005 4288522940
0.23700245 -0.12734461 0.80700004 4288785598
0.23617136 -0.1248233 0.80900002 4288258998
0.23700245 -0.12451472 0.80700004 4288324791
0.23617136 -0.12198641 0.80900002 4288127919
0.23700245 -0.12168484 0.80700004 4287930539
0.23617136 -0.11914951 0.80900002 4287601581
0.23729613 -0.11900136 0.80800003 4287403945
0.23719823 -0.11541171 0.80766672 4287469739
0.23758982 -0.11205728 0.80900002 4287272105
0.23617136 -0.10851116 0.80900002 4287074725
0.23729613 -0.10908626 0.80800003 4287009190
0.23517022 -0.106252 0.80800003 4286876831
0.23700245 -0.10682797 0.80700004 4287074725
0.23333448 -0.10283738 0.80900002 4287141022
0.23483767 -0.10361236 0.80766672 4286877855
0.23304605 -0.1005861 0.80800003 4287008415
0.23417257 -0.10046074 0.80700004 4286942622
0.23191603 -0.097872823 0.80900002 4286745753
0.22348368 -0.13674451 0.81100005 4288983752
0.2253796 -0.13579655 0.81100005 4288918216
0.22680156 -0.13437459 0.81100005 4288787650
0.22869749 -0.13342662 0.81100005 4288721856
0.2289345 -0.13153069 0.81100005 4288259770
0.2315414 -0.13058271 0.81100005 4288523196
0.23343734 -0.12821279 0.81100005 4288655038
0.23391134 -0.12584287 0.81100005 4288062905
0.23533328 -0.12513189 0.81100005 4288193720
0.23533328 -0.12157702 0.81100005 4288061620
0.23580725 -0.11778513 0.81100005 4287667623
0.23628126 -0.11541522 0.81100005 4287141032
0.23675524 -0.11233431 0.81100005 4287337898
0.23580725 -0.10972741 0.81100005 4286878373
0.23391134 -0.1066465 0.81100005 4287205281
0.23391134 -0.10451358 0.81100005 4286811807
0.23248938 -0.10095869 0.81100005 4287074461
0.23106742 -0.098114781 0.81100005 4287469732
0.22964545 -0.0945599 0.81100005 4287272093
0.2314229 -0.09491539 0.81100005 4286942876
0.22023357 -0.13898234 0.81300002 4288985039
0.22084303 -0.13718905 0.81420004 4288851653
0.2226444 -0.13558438 0.81400001 4288983493
0.22387418 -0.13369605 0.81380004 4288457919
0.22641057 -0.13375567 0.81300002 4288655807
0.22450994 -0.13185504 0.81300002 4288457665
0.22678709 -0.13122253 0.81350005 4288456886
0.22963975 -0.12979621 0.81350005 4288324279
0.23163724 -0.12900412 0.81300002 4288325813
0.23030181 -0.12741621 0.81500006 4288389302
0.23249245 -0.12694353 0.81349999 4288128693
0.23296861 -0.12445599 0.81433338 4287338930
0.23448817 -0.12401502 0.81300002 4288324277
0.23363605 -0.12146217 0.81500006 4287536297
0.23448817 -0.1211641 0.81300002 4287732656
0.23363605 -0.11860424 0.81500006 4287666598
0.23477659 -0.11845783 0.81400001 4287601570
0.23534787 -0.11541405 0.81433338 4287076270
0.23548931 -0.11274984 0.81400001 4286878379
0.23363605 -0.10931595 0.81500006 4287009185
0.23448817 -0.10976042 0.81300002 4287009958
0.23296863 -0.10684726 0.81433338 4286943642
0.23077813 -0.10217112 0.81500006 4286877863
0.23234998 -0.10405858 0.81300002 4287009690
0.22973663 -0.099544622 0.81300002 4286878121
0.23163724 -0.10120766 0.81300002 4287074461
0.22792019 -0.096455254 0.81500006 4287009435
0.22926147 -0.097168855 0.81300002 4287468949
0.22792019 -0.095026284 0.81500006 4286878104
0.22878633 -0.094080359 0.81300002 4287074717
0.21845219 -0.13680121 0.81700003 4288784316
0.22036214 -0.13584623 0.81700009 4288588219
0.2206009 -0.13393626 0.81700003 4287932090
0.22274961 -0.13393626 0.81700003 4288064454
0.22633079 -0.13035506 0.81700003 4288192955
0.2284795 -0.12963884 0.81700003 4288257722
0.22991198 -0.12677389 0.81700003 4288191924
0.22991198 -0.12534142 0.81700003 4287733170
0.23182194 -0.12438643 0.81700009 4287799220
0.23229943 -0.12199897 0.81700009 4287339177
0.23277692 -0.11889529 0.81700003 4287666599
0.23277692 -0.1153141 0.81700003 4287338666
0.23420937 -0.11603034 0.81700003 4287338923
0.23277692 -0.11244916 0.81700009 4287075240
0.23420937 -0.11244916 0.81700009 4286812068
0.23277692 -0.10886797 0.81700003 4287009184
0.23134445 -0.10528679 0.81700003 4286812574
0.23134445 -0.10385431 0.81700003 4286878367
0.22919574 -0.10027313 0.81700003 4286877864
0.2284795 -0.098124422 0.81700003 4287273114
0.2284795 -0.093827002 0.81700003 4286878367
0.21736935 -0.13634078 0.81940001 4288521915
0.21853459 -0.13442808 0.82000005 4288325819
0.22060119 -0.13293628 0.81966668 4287735222
0.2232949 -0.13282816 0.81900007 4287669442
0.2209612 -0.13171303 0.82100004 4287866028
0.22312044 -0.13171303 0.82100004 4287799483
0.22599941 -0.13099329 0.82100004 4287864760
0.22671916 -0.12811431 0.82100004 4287930292
0.22859873 -0.12795827 0.82000005 4288323002
0.22926442 -0.12470496 0.82066673 4287995567
0.23003647 -0.1214876 0.82000005 4287797937
0.23191078 -0.12134031 0.81900007 4287469232
0.23025563 -0.11854068 0.81950003 4287469740
0.23226976 -0.11810935 0.81900007 4287469995
0.2304748 -0.1148784 0.81900007 4287140773
0.23191078 -0.1148784 0.81900007 4287009187
0.2304748 -0.11272443 0.81900007 4287008931
0.23161972 -0.1118577 0.81966668 4286746017
0.23147419 -0.10926773 0.82000005 4287206818
0.23132867 -0.10667485 0.82033342 4286812571
0.2304748 -0.10339057 0.81900007 4286812323
0.22815864 -0.097165354 0.82100004 4287009435
0.22815864 -0.095006123 0.82100004 4286878107
0.22887838 -0.092846893 0.82100004 4286878115
0.23175736 -0.092846893 0.82100004 4286550186
0.21789199 -0.13419837 0.82300001 4288062142
0.22005647 -0.1320339 0.82300001 4287799978
0.22149947 -0.13059089 0.82300001 4287603110
0.22366396 -0.13059089 0.82300001 4287602606
0.22582844 -0.1298694 0.82300001 4287798708
0.22654994 -0.1269834 0.82300001 4287601839
0.22727144 -0.12409742 0.82300001 4287796650
0.22871442 -0.12337592 0.82300001 4287271074
0.22727144 -0.12193294 0.82300001 4287599272
0.22871442 -0.12121144 0.82300001 4287533737
0.22943592 -0.11832544 0.82300001 4287206316
0.23015743 -0.11543946 0.82300001 4287338151
0.23015743 -0.10173102 0.82300001 4287009185
0.22871442 -0.098845042 0.82300001 4287338907
0.22727144 -0.095237553 0.82300001 4286943641
0.22943592 -0.091630079 0.82300001 4286484384
0.21723799 -0.13323843 0.82600009 4287733682
0.21914476 -0.13235475 0.82500005 4287865526
0.22064267 -0.13074227 0.82699996 4287405736
0.22384427 -0.12967098 0.82633334 4287602348
0.22409792 -0.12762216 0.82620001 4287601578
0.22637725 -0.12656876 0.82500005 4287470253
0.22402602 -0.12542558 0.82700002 4287797673
0.22592664 -0.12454979 0.82600009 4287665320
0.22678795 -0.12172736 0.82650006 4287336356
0.22737488 -0.1194809 0.82600003 4287337367
0.22882316 -0.11803265 0.82600003 4286943393
0.22882316 -0.11586027 0.82600003 4287074977
0.2302714 -0.11296376 0.82600009 4287271076
0.2302714 -0.11079139 0.82600003 4287074729
0.23127607 -0.10875049 0.82700002 4287009444
0.22982605 -0.10512548 0.82700002 4286943909
0.23127607 -0.10657549 0.82700002 4286812320
0.2302714 -0.10354924 0.82600003 4286943651
0.22882316 -0.099928603 0.82600003 4287206822
0.22692604 -0.097150445 0.82700002 4286878107
0.22837605 -0.097875446 0.82700002 4286944160
0.22652559 -0.094060197 0.82660007 4286943390
0.22665048 -0.09124025 0.82600003 4286746272
0.22999351 -0.090406254 0.82500005 4286879658
0.23272607 -0.091350421 0.82700002 4287143332
0.23417607 -0.091350421 0.82700002 4287406503
0.226559 -0.089031637 0.82566673 4287208117
0.22934271 -0.088208735 0.82699996 4288260549
0.23127607 -0.089175403 0.82700002 4287668926
0.21511999 -0.13154297 0.82900006 4287469995
0.21826927 -0.13105845 0.82900006 4287405228
0.22020727 -0.13008945 0.82900006 4287405743
0.22093403 -0.12790918 0.82900006 4287602091
0.22311431 -0.12718242 0.82900006 4287601321
0.22166079 -0.12572891 0.82900006 4287797669
0.22359882 -0.12475989 0.82900006 4287731368
0.22456782 -0.12209512 0.82900006 4287336363
0.22602133 -0.12136836 0.82900006 4287270823
0.22674808 -0.11846134 0.82900006 4287272359
0.22747484 -0.11555431 0.82900006 4287009183
0.22892834 -0.11410081 0.82900006 4286877854
0.22892834 -0.11192053 0.82900006 4287009182
0.23038188 -0.1090135 0.82900006 4287009445
0.23038188 -0.10683323 0.82900006 4286944162
0.22892834 -0.10319945 0.82900006 4286944168
0.22747484 -0.099565662 0.82900006 4286943911
0.22892834 -0.10101918 0.82900006 4287206313
0.22602133 -0.097385392 0.82900006 4286746270
0.22408332 -0.094236113 0.82900006 4287008928
0.22166079 -0.091571346 0.82900006 4286549922
0.22384107 -0.091571346 0.82900006 4286483872
0.22384107 -0.089391075 0.82900006 4286484140
0.21476842 -0.13012569 0.83233339 4287206309
0.21702671 -0.13002105 0.83166671 4287142313
0.21817398 -0.12769264 0.83233339 4287075494
0.2197777 -0.12720083 0.83150005 4287601833
0.22053954 -0.12414477 0.83300006 4287140773
0.22268121 -0.12360386 0.83100003 4287205797
0.22053953 -0.12122371 0.83300006 4286746267
0.22292405 -0.12093266 0.83100003 4287009697
0.22510961 -0.12020415 0.83100003 4287008933
0.2212698 -0.11903293 0.83300006 4286746527
0.22332603 -0.11823121 0.83250004 4286747297
0.22559528 -0.11777578 0.83100003 4286877867
0.22644329 -0.1155321 0.83233339 4287074724
0.22802362 -0.11437608 0.83100003 4286877854
0.22711191 -0.11246055 0.83300006 4286812071
0.22857244 -0.11246055 0.83300006 4286812060
0.22902654 -0.10940801 0.83200002 4286877857
0.22711191 -0.10588819 0.83300006 4286944160
0.22902656 -0.10649046 0.83200008 4286943918
0.22711191 -0.1036974 0.83300006 4286944159
0.22829804 -0.10357378 0.83200002 4286943911
0.22644329 -0.10045286 0.83233339 4286747039
0.22802362 -0.10126289 0.83100003 4286745762
0.22392172 -0.097738691 0.83200002 4287205547
0.22510961 -0.097620338 0.83100003 4286877856
0.22268121 -0.094949149 0.83100003 4287205025
0.2212698 -0.09201318 0.83300006 4286549409
0.21374887 -0.13029897 0.83500004 4287207075
0.21594492 -0.12737089 0.83500004 4287270558
0.21740896 -0.12737089 0.83500004 4287272103
0.21594492 -0.12444283 0.83500004 4287204768
0.21814096 -0.12444284 0.83500004 4287402661
0.21887298 -0.12151477 0.83500004 4286941592
0.21887298 -0.11931872 0.83500004 4286876317
0.22082503 -0.1183427 0.83500004 4286548896
0.22180104 -0.11639065 0.83500004 4286877604
0.22424109 -0.11590263 0.83500004 4287008157
0.22619316 -0.11492661 0.83500004 4287009183
0.22472911 -0.11346258 0.83500004 4286746266
0.22619316 -0.11273056 0.83500004 4286877865
0.22692516 -0.1098025 0.83500004 4286812835
0.22668116 -0.10711844 0.83500004 4286943905
0.22619316 -0.10394637 0.83500004 4286944160
0.22472911 -0.10101829 0.83500004 4286747299
0.22619316 -0.10175031 0.83500004 4286682015
0.2232651 -0.098090231 0.83500004 4286810790
0.22180104 -0.094430149 0.83500004 4287139740
0.21352707 -0.12987728 0.83700001 4287272862
0.21183072 -0.12871659 0.83900005 4287337634
0.2143884 -0.1277518 0.83749998 4287534244
0.21550834 -0.12577449 0.83900005 4287270561
0.21761292 -0.12214801 0.83766669 4287402401
0.21939722 -0.11813696 0.83700001 4287073182
0.22317566 -0.11489505 0.83833337 4286746271
0.22415636 -0.11244448 0.83833337 4286549654
0.2252674 -0.11226681 0.83700001 4286681234
0.22359911 -0.10885745 0.83900005 4286745755
0.2252674 -0.1100655 0.83700001 4286615709
0.2233317 -0.10652289 0.838 4286547861
0.2252674 -0.10713042 0.83700001 4286746016
0.22139253 -0.10297327 0.83900005 4286943136
0.22331066 -0.10395074 0.83700007 4286482588
0.2252674 -0.10419533 0.83700001 4287009191
0.22139253 -0.10003117 0.83900005 4286876832
0.22291932 -0.10081999 0.83700001 4286943651
0.22086476 -0.096857637 0.83700001 4287336095
0.22233231 -0.096857637 0.83700001 4287467425
0.22086476 -0.093922555 0.83700001 4286876570
0.2115984 -0.12754886 0.84100002 4286812061
0.21381024 -0.12681159 0.84100002 4287139488
0.21602206 -0.12459975 0.84100002 4287204768
0.21823388 -0.12091337 0.84100002 4287534246
0.22192027 -0.117227 0.84100002 4286745762
0.22192027 -0.11501516 0.84100002 4286877857
0.22339483 -0.11206605 0.84100002 4286811810
0.22192027 -0.10837967 0.84100002 4286942362
0.22339483 -0.10985422 0.84100002 4286746014
0.22192027 -0.10616784 0.84100002 4287073684
0.22044571 -0.099532351 0.84100002 4287007907
0.21897116 -0.097320527 0.84100002 4287205029
0.22044571 -0.097320527 0.84100002 4287139236
0.22044571 -0.094371408 0.84100002 4286745762
0.22118299 -0.092159577 0.84100002 4286616752
0.2112828 -0.12696676 0.84366673 4286877854
0.21357967 -0.12637414 0.84300005 4286942110
0.21260482 -0.12519239 0.84500003 4287206815
0.21457204 -0.12430432 0.84399998 4286876572
0.21653581 -0.12341801 0.84300005 4287139488
0.21507408 -0.12173539 0.84500003 4286811550
0.21719973 -0.12104984 0.84366673 4286876834
0.21803723 -0.11877226 0.84500003 4286941348
0.22033177 -0.11818548 0.84433335 4287532708
0.22062238 -0.11549339 0.84450001 4286942112
0.22149421 -0.11259906 0.84500003 4287271067
0.22297578 -0.11259906 0.84500003 4286877860
0.22149421 -0.10963593 0.84500003 4287073445
0.22244804 -0.11011548 0.84300005 4286811807
0.22149421 -0.1066728 0.84500003 4287599524
0.22096997 -0.1034642 0.84300005 4287205794
0.22033177 -0.1009134 0.84433335 4286942631
0.21556795 -0.094820261 0.84500003 4286747043
0.21704951 -0.094820261 0.84500003 4287008419
0.22001265 -0.094820261 0.84500003 4287140519
0.21704951 -0.092597909 0.84500003 4288588216
0.22049132 -0.091749296 0.84400004 4287210175
0.22318706 -0.090900689 0.84300005 4286882745
0.22540416 -0.090900689 0.84300005 4287273653
0.21088043 -0.12474616 0.84700006 4286615193
0.21310803 -0.12400362 0.84700006 4286744730
0.21385056 -0.12177601 0.84700006 4287073443
0.21682072 -0.11880587 0.84700006 4286941345
0.21756326 -0.11583572 0.84700006 4286810272
0.21904832 -0.11583572 0.84700006 4286810272
0.22003837 -0.11311308 0.84700006 4286941850
0.2205334 -0.10989543 0.84700006 4286810274
0.2205334 -0.10766782 0.84700006 4287204766
0.2205334 -0.10395513 0.84700006 4287074464
0.21682072 -0.097272307 0.84700006 4287007647
0.21904832 -0.098014846 0.84700006 4287008167
0.21904832 -0.095044702 0.84700006 4287140006
0.21954334 -0.091827035 0.84700006 4288392384
0.2091455 -0.12280785 0.84900004 4286746266
0.21182632 -0.12178776 0.8502 4286678938
0.21386284 -0.12071612 0.85000002 4286743708
0.21480699 -0.11821026 0.85020006 4286810525
0.21658839 -0.11834212 0.84900004 4287072928
0.21560653 -0.11489067 0.85100001 4286482846
0.21675847 -0.11545437 0.84966666 4286680226
0.21841945 -0.11256313 0.85033339 4286743968
0.21956556 -0.11238779 0.84900004 4286941344
0.21991037 -0.10958129 0.85033339 4286941606
0.22040658 -0.10610326 0.85033339 4287337126
0.21809334 -0.10270529 0.85100001 4286745254
0.21956556 -0.1034563 0.84900004 4286548649
0.21560653 -0.099969804 0.85100001 4286941851
0.21733268 -0.10047915 0.84900004 4286876835
0.21956556 -0.10122344 0.84900004 4286548135
0.21509981 -0.096757695 0.84900004 4286811035
0.21733268 -0.098990574 0.84900004 4287073700
0.20887986 -0.12203376 0.85400003 4286810521
0.21087633 -0.12103552 0.85400003 4287073427
0.2133719 -0.11829039 0.85400003 4286941853
0.21437013 -0.11554525 0.85400003 4286483098
0.21736483 -0.11255056 0.85400003 4286548125
0.21786393 -0.11005498 0.85400003 4286679967
0.21936129 -0.10930631 0.85400003 4286678689
0.21936129 -0.10631161 0.85400003 4286942371
0.21711527 -0.10331692 0.85400003 4286876832
0.20861861 -0.12156913 0.85600007 4286810522
0.21187048 -0.11881756 0.85600013 4286811033
0.21387161 -0.11481529 0.85600007 4286746012
0.21537246 -0.11331443 0.85600007 4287009185
0.21687332 -0.11181358 0.85600007 4286876319
0.21762374 -0.10956229 0.85600007 4287074468
0.21837418 -0.10656059 0.85600007 4286876580
0.21687332 -0.10430931 0.85600007 4286614176
0.20231715 -0.12217367 0.8592 4286613399
0.20583677 -0.12181564 0.85880005 4287008153
0.20835386 -0.12110098 0.85800004 4286810524
0.20582379 -0.1198754 0.86000001 4286547608
0.20871723 -0.11942874 0.85949999 4286876059
0.21085498 -0.1182299 0.85900003 4286613913
0.21160775 -0.11597043 0.85900015 4286417561
0.21462028 -0.1129585 0.85900003 4286680221
0.21520589 -0.11023966 0.85933334 4286811298
0.21687944 -0.10919322 0.85900003 4287073442
0.21487099 -0.10705853 0.86000001 4287336358
0.21687946 -0.10693405 0.85900003 4286876322
0.21470326 -0.10396215 0.85933334 4286876319
0.21386722 -0.10166265 0.85900003 4286875543
0.19723421 -0.12619968 0.86200005 4286746012
0.19874559 -0.1246883 0.86200005 4287075499
0.2032797 -0.12015419 0.86200005 4286547354
0.2047911 -0.12015419 0.86200005 4286876319
0.20630246 -0.11864281 0.86200005 4286810272
0.20831764 -0.11763523 0.86200005 4286744991
0.20932521 -0.11562005 0.86200005 4286483106
0.21159227 -0.11410868 0.86200005 4286483099
0.21159229 -0.11184162 0.86200005 4286483102
0.21385933 -0.11184162 0.86200005 4286482589
0.21234795 -0.10881887 0.86200005 4286876064
0.21385933 -0.10881887 0.86200005 4286942113
0.21234795 -0.10579613 0.86200005 4286810780
0.21385933 -0.10655182 0.86200005 4287007905
0.21159227 -0.10352908 0.86200005 4286482331
0.20223647 -0.12043296 0.86400002 4286417049
0.2032464 -0.11841312 0.86400002 4286679203
0.20577121 -0.11790816 0.86400002 4286810533
0.20678112 -0.11588831 0.86400002 4286810526
0.20905343 -0.11513087 0.86400002 4286679711
0.20981087 -0.11210112 0.86400002 4286417309
0.21132575 -0.10907136 0.86400002 4287074214
0.20981087 -0.10528415 0.86400002 4286548382
0.21132575 -0.1060416 0.86400002 4286614177
0.20981087 -0.10376928 0.86400002 4286417312
0.1995977 -0.12112991 0.86900002 4287270304
0.20141855 -0.12161121 0.86700004 4286811807
0.19985163 -0.11909837 0.86900002 4287009449
0.20208013 -0.11840815 0.86766672 4287007903
0.20340683 -0.11655897 0.86900002 4286285463
0.2054556 -0.11566301 0.86800003 4286547096
0.2082592 -0.11477057 0.86700004 4286614174
0.20562947 -0.1128308 0.86766672 4286483872
0.20825918 -0.11249036 0.86700004 4286417054
0.2082592 -0.10945008 0.86700004 4286678689
0.21053939 -0.10945008 0.86700004 4286679200
0.20867328 -0.1067444 0.86766672 4286418341
0.21053939 -0.10716987 0.86700004 4286548128
0.2031114 -0.11606365 0.87100005 4286679706
0.20969866 -0.15078665 0.80000001 4286418848
0.21180266 -0.15078665 0.80000001 4286087834
0.20969866 -0.14938401 0.80000001 4290496730
0.21180266 -0.14938401 0.80000001 4290232527
0.244064 -0.117824 0.80000001 4283652963
0.2003797 -0.15116364 0.80200005 4286612377
0.20178588 -0.15116364 0.80200005 4286612377
0.21514452 -0.15116364 0.80200005 4284705663
0.21795687 -0.15116364 0.80200005 4283457397
0.20248896 -0.14905438 0.80200005 4289838292
0.20538664 -0.14841236 0.80233335 4290233301
0.20812821 -0.14874351 0.80260003 4290299354
0.210926 -0.1483513 0.80200005 4290431708
0.21444143 -0.14905438 0.80200005 4289707468
0.21763274 -0.14831358 0.80275005 4289049543
0.22104448 -0.14924023 0.80300003 4284115088
0.22362567 -0.14759766 0.80300003 4285955225
0.2026152 -0.14633277 0.80250001 4290101200
0.20555729 -0.14572041 0.80300003 4290232786
0.20866004 -0.1456746 0.80275005 4289773017
0.21110134 -0.14565934 0.80266666 4290167769
0.213916 -0.14565934 0.80266672 4290298833
0.21752466 -0.14501645 0.80300003 4290298328
0.22086097 -0.14559884 0.80233335 4290231766
0.22386034 -0.14501645 0.80300003 4289574096
0.22597222 -0.14431249 0.80300003 4289508829
0.2189326 -0.14290455 0.80300003 4289905372
0.22104448 -0.14290455 0.80300003 4290101718
0.22386034 -0.14290455 0.80300003 4290036443
0.2025407 -0.14467192 0.80500007 4289640904
0.20606928 -0.14467192 0.80500007 4289969872
0.20818643 -0.14467192 0.80500007 4290232527
0.20889214 -0.14326048 0.80500007 4289904596
0.21171501 -0.14255476 0.80500007 4289771729
0.21453787 -0.14255476 0.80500007 4289969620
0.21736075 -0.14255476 0.80500007 4289773011
0.22018361 -0.14184906 0.80500007 4289970903
0.22300649 -0.14184906 0.80500007 4289576402
0.22653505 -0.1422019 0.80500007 4289773784
0.20233643 -0.14361642 0.80700004 4288917696
0.20554809 -0.14317414 0.80850005 4288918211
0.20812547 -0.1422887 0.8075 4289444559
0.21037896 -0.14166845 0.80800003 4289706447
0.21489465 -0.14113544 0.80900002 4289444306
0.21702234 -0.14113544 0.80900002 4289772238
0.21860823 -0.14078653 0.80700004 4289772756
0.22109094 -0.13979204 0.80779999 4289576402
0.20831616 -0.14148435 0.81100005 4289115597
0.21258202 -0.14148435 0.81100005 4289509581
0.21400398 -0.14148435 0.81100005 4289510355
0.21542594 -0.14006241 0.81100005 4289246413
0.21755886 -0.14006241 0.81100005 4289115593
0.22040278 -0.13935143 0.81100005 4288984782
0.21408112 -0.14058052 0.81400001 4289311435
0.21755974 -0.13909632 0.81366664 4288984007
0.21272229 -0.14109862 0.81700003 4288982212
0.20914111 -0.13966614 0.81700003 4288785091
0.21128982 -0.13966614 0.81700003 4288718784
0.21487099 -0.13966614 0.81700003 4288784319
0.21773595 -0.13823368 0.81700003 4288719809
0.20559588 -0.13945927 0.82000005 4288849087
0.20831676 -0.13927633 0.82033342 4288653508
0.21160454 -0.13891046 0.82100004 4288850106
0.21389526 -0.13916354 0.81966668 4288914879
0.216115 -0.13857208 0.81900007 4288654013
0.21232428 -0.13747098 0.82100004 4288849337
0.21448351 -0.13675123 0.82100004 4288521917
0.20201907 -0.13636287 0.82300001 4287799218
0.20490505 -0.13780586 0.82300001 4288456122
0.20851253 -0.13780586 0.82300001 4288324537
0.21139853 -0.13780586 0.82300001 4289112765
0.21572751 -0.13491987 0.82300001 4287866296
0.20251 -0.13524775 0.82500005 4287470513
0.20565197 -0.13613494 0.82600009 4287865270
0.208296 -0.13597101 0.82500005 4287471023
0.211445 -0.13613494 0.82600003 4287865781
0.21384092 -0.13572992 0.82500005 4287865782
0.20880094 -0.13412562 0.82700002 4287536562
0.21170098 -0.13412562 0.82700002 4287339183
0.21460098 -0.13340062 0.82700002 4287535788
0.20567213 -0.13444999 0.82900006 4287337903
0.20712565 -0.13444999 0.82900006 4287338930
0.21221295 -0.13299648 0.82900006 4287666604
0.21293971 -0.13154297 0.82900006 4287469482
0.23280437 -0.08842206 0.82900006 4288062137
0.20568791 -0.13347775 0.83200002 4287599789
0.20860371 -0.13347775 0.83200002 4287207342
0.21136405 -0.13255756 0.83233339 4287470249
0.20789273 -0.13249502 0.83500004 4287206314
0.21008877 -0.13249502 0.83500004 4287207598
0.21155283 -0.13103099 0.83500004 4286879649
0.20252052 -0.13134483 0.83700001 4287403689
0.20570195 -0.13150176 0.83800006 4287206826
0.20863965 -0.13076623 0.838 4286878122
0.21108116 -0.13036646 0.83700007 4287141542
0.19390376 -0.13344708 0.84100002 4288194477
0.19685288 -0.13197252 0.84100002 4286877854
0.1990647 -0.13197252 0.84100002 4287336618
0.20176804 -0.13098949 0.84100002 4287008162
0.20496291 -0.1297607 0.84100002 4287073438
0.20766626 -0.12951493 0.84100002 4287205541
0.21012385 -0.12902342 0.84100002 4287206565
0.19385467 -0.13244329 0.84400004 4287206560
0.19584295 -0.13228637 0.84300005 4287469734
0.19482601 -0.13111864 0.84500003 4287271074
0.19704837 -0.13111864 0.84500003 4287337119
0.19994283 -0.13041791 0.84366673 4287402660
0.20273355 -0.12948367 0.84400004 4287335838
0.20371541 -0.12815551 0.84500003 4286877854
0.20569405 -0.12726307 0.84399998 4286812062
0.20865369 -0.12726307 0.84400004 4286944404
0.19677222 -0.12994392 0.84700006 4287533729
0.19899984 -0.12994392 0.84700006 4287270814
0.19974238 -0.12845884 0.84700006 4287141022
0.20196998 -0.12845884 0.84700006 4286877852
0.20419759 -0.12697376 0.84700006 4286616992
0.20568267 -0.1254887 0.84700006 4286615970
0.20815778 -0.12499367 0.84700006 4286419099
0.19574827 -0.13025075 0.84900004 4287533731
0.19672398 -0.12816778 0.85000002 4286943902
0.19958764 -0.12734766 0.8495 4286943905
0.20268533 -0.12667745 0.85000002 4286616223
0.20566601 -0.12444195 0.85000002 4286680990
0.20790151 -0.12369679 0.85000002 4286287004
0.19914711 -0.12652579 0.85400003 4286746529
0.19989577 -0.12502845 0.85400003 4286680480
0.20214179 -0.12502845 0.85400003 4286810523
0.20438783 -0.12502845 0.85400003 4286547606
0.19736223 -0.12682211 0.85600007 4287273625
0.1996135 -0.12457083 0.85600007 4286680734
0.2026152 -0.1238204 0.85600007 4286415770
0.20561692 -0.1238204 0.85600007 4286876316
0.19782333 -0.12561406 0.85800004 4287140770
0.19932771 -0.1241097 0.85800004 4287009183
0.19979233 -0.12289114 0.86000001 4286810524
