# .PCD v0.7 - Point Cloud Data file format
VERSION 0.7
FIELDS x y z rgba
SIZE 4 4 4 4
TYPE F F F U
COUNT 1 1 1 1
WIDTH 451
HEIGHT 1
VIEWPOINT 0 0 0 1 0 0 0
POINTS 451
DATA ascii
0.13412562 -0.2646262 0.82700002 4284376684
0.13557562 -0.2646262 0.82700002 4280823863
0.13412562 -0.2624512 0.82700002 4285693068
0.13630062 -0.2624512 0.82700002 4282600793
0.13847563 -0.2617262 0.82700002 4281416256
0.13412562 -0.2595512 0.82700002 4285627019
0.13630062 -0.2595512 0.82700002 4284968313
0.13895898 -0.25930953 0.82699996 4281743164
0.1334006 -0.25665116 0.82700002 4285955466
0.13630064 -0.25665116 0.82700002 4285626496
0.1334006 -0.25375116 0.82700002 4285692815
0.13154297 -0.26599294 0.82900006 4286876318
0.13348098 -0.2662352 0.82900006 4284310640
0.13154297 -0.2630859 0.82900006 4286417045
0.13299648 -0.2630859 0.82900006 4286154130
0.13154297 -0.26017889 0.82900006 4286022544
0.13299648 -0.26017889 0.82900006 4285759115
0.13154297 -0.25654513 0.82900006 4285890190
0.13154297 -0.25291133 0.82900006 4285496208
0.13036157 -0.26875356 0.83260012 4286417299
0.13331732 -0.2688202 0.83100003 4282273891
0.12990841 -0.26565674 0.8325001 4286614413
0.12982994 -0.2625792 0.83200008 4286088847
0.12894627 -0.25862104 0.83100003 4286679189
0.13002105 -0.25980103 0.83166671 4286350996
0.12894627 -0.25716403 0.83100003 4286350476
0.13002105 -0.25639781 0.83166671 4285824906
0.12982994 -0.25382656 0.83200002 4285365126
0.12151477 -0.27816635 0.83500004 4286154390
0.12371082 -0.27743432 0.83500004 4283328641
0.12224678 -0.27450624 0.83500004 4287339176
0.12444284 -0.27450624 0.83500004 4287207083
0.12722449 -0.27421343 0.83500004 4285628812
0.12956695 -0.27304223 0.83500004 4285629079
0.12224679 -0.27157816 0.83500004 4287207076
0.12444284 -0.27084616 0.83500004 4286615972
0.12737089 -0.27084616 0.83500004 4286878107
0.13029897 -0.27157816 0.83500004 4285300884
0.12444283 -0.26791811 0.83500004 4286483100
0.12737089 -0.26791811 0.83500004 4286877075
0.12517485 -0.26499003 0.83500004 4286285715
0.12737089 -0.26499003 0.83500004 4286548619
0.12737089 -0.26206195 0.83500004 4286220680
0.12810291 -0.25913388 0.83500004 4286154378
0.12810291 -0.25620586 0.83500004 4285694089
0.12956695 -0.25254574 0.83500004 4285495933
0.097089082 -0.28317648 0.83900005 4288061871
0.1010126 -0.28320584 0.838 4288062133
0.10419533 -0.28323519 0.83700001 4287667895
0.10713042 -0.28323519 0.83700001 4287601828
0.10959298 -0.283912 0.83900005 4286221474
0.1160733 -0.28283894 0.83800006 4285232270
0.11887074 -0.28250143 0.83700001 4281879912
0.097089075 -0.28096992 0.83900005 4287931314
0.10003117 -0.28096992 0.83900005 4287931314
0.10336445 -0.28098273 0.83860004 4287800245
0.10607579 -0.28050092 0.83833337 4287800499
0.10885745 -0.28170544 0.83900005 4288063160
0.11538424 -0.28074667 0.83833337 4287338669
0.11887074 -0.28030014 0.83700001 4285826196
0.12107204 -0.2810339 0.83700001 4282208607
0.097089082 -0.27802783 0.83900005 4287471790
0.099295653 -0.27802783 0.83900005 4287405742
0.11614299 -0.27786168 0.83850002 4287799216
0.11894131 -0.27753031 0.83749998 4287667628
0.12107204 -0.2766313 0.83700001 4287470505
0.1169482 -0.27508575 0.83900005 4287339428
0.11901189 -0.27475786 0.838 4287273378
0.12107204 -0.27442998 0.83700001 4287010469
0.1169482 -0.27214363 0.83900005 4286813087
0.11908333 -0.271981 0.83850002 4286878358
0.12156123 -0.27125028 0.83700007 4286879137
0.11939996 -0.26944673 0.83900005 4286550170
0.12187815 -0.26871985 0.83749998 4286549915
0.12239143 -0.26573256 0.83850002 4286088341
0.12400713 -0.26562473 0.83700001 4286351508
0.12500688 -0.26249906 0.83780003 4286285712
0.12577449 -0.25963974 0.83900005 4286349963
0.1269422 -0.2597546 0.83700001 4286088328
0.11206605 -0.28311422 0.84100002 4288128187
0.11427788 -0.2838515 0.84100002 4287008933
0.1010069 -0.27942786 0.84100002 4287669424
0.10321873 -0.27942786 0.84100002 4287341231
0.10616784 -0.27942786 0.84100002 4287406512
0.10887118 -0.28041089 0.84100002 4287866040
0.11206605 -0.28016514 0.84100002 4287931057
0.11427788 -0.27942786 0.84100002 4287865514
0.10026963 -0.27721602 0.84100002 4287274152
0.10321873 -0.2779533 0.84100002 4287734701
0.11280333 -0.2779533 0.84100002 4287930535
0.1147694 -0.27697027 0.84100002 4287602088
0.11575244 -0.2742669 0.84100002 4287141792
0.11575244 -0.27205509 0.84100002 4286747810
0.117227 -0.27058053 0.84100002 4286616222
0.11796427 -0.26910597 0.84100002 4286220184
0.1201761 -0.26763144 0.84100002 4286285463
0.12091337 -0.26615688 0.84100002 4285825426
0.12386248 -0.26247048 0.84100002 4286087822
0.12459975 -0.26025867 0.84100002 4286481292
0.12607431 -0.25878412 0.84100002 4286151815
0.11011548 -0.28009236 0.84300005 4287931056
0.10124711 -0.27713627 0.84300005 4287076012
0.10379294 -0.27686158 0.84366673 4287536816
0.10650449 -0.27735424 0.84366661 4287207847
0.10946294 -0.27735427 0.84366661 4287667624
0.11208621 -0.27762896 0.84300011 4287601315
0.10066705 -0.27461264 0.84433335 4286944164
0.10351276 -0.27440351 0.84460002 4286878372
0.1066728 -0.27408984 0.84500003 4287140766
0.10963593 -0.27408984 0.84500003 4287141277
0.11229066 -0.27473521 0.84380007 4286813085
0.11454965 -0.27491915 0.84300005 4287076516
0.11037672 -0.27186748 0.84500003 4286614428
0.11269357 -0.27144176 0.84460002 4286484124
0.11498711 -0.271384 0.84350002 4286616222
0.11586378 -0.26874435 0.84450001 4286088340
0.11809138 -0.26798618 0.84366673 4286219669
0.11882515 -0.26578298 0.84450001 4286153361
0.1213447 -0.26488572 0.84399998 4286022288
0.12222925 -0.26297808 0.84500003 4285495429
0.12371082 -0.26223731 0.84500003 4286087052
0.12519239 -0.25927415 0.84500003 4285757828
0.10098499 -0.27176845 0.84700006 4286744730
0.10395513 -0.27176845 0.84700006 4286678941
0.10692528 -0.27251098 0.84700006 4286613655
0.10964792 -0.27152094 0.84700006 4286350999
0.11063797 -0.26954082 0.84700006 4286746014
0.11311308 -0.2690458 0.84700006 4286088598
0.11509318 -0.26805574 0.84700006 4286483612
0.11583572 -0.26657069 0.84700006 4286021775
0.11806333 -0.26508561 0.84700006 4286023061
0.1195484 -0.26360053 0.84700006 4285826449
0.12177601 -0.26285797 0.84700006 4285956494
0.12400362 -0.26063037 0.84700006 4286480779
0.1254887 -0.25691772 0.84700006 4285759366
0.1254887 -0.25394756 0.84700006 4285627013
0.1254887 -0.2509774 0.84700006 4285824646
0.12697376 -0.2509774 0.84700006 4285758853
0.12845884 -0.24874979 0.84700006 4285494914
0.10122344 -0.27017727 0.84900004 4286613143
0.1042006 -0.27017727 0.84900004 4286875805
0.10724044 -0.27108067 0.84950006 4286350234
0.10941064 -0.27017727 0.84900004 4286285211
0.10295397 -0.26932162 0.85100001 4286613144
0.10593815 -0.26932162 0.85100001 4286219420
0.10931771 -0.2685982 0.85060006 4286154393
0.1124531 -0.26772961 0.8495 4285891474
0.11265255 -0.26633745 0.85100001 4285628814
0.11549967 -0.26527905 0.84999996 4285825162
0.11834212 -0.26422295 0.84900004 4285759630
0.11563671 -0.26335329 0.85100001 4285955969
0.11821027 -0.2625089 0.8502 4285824653
0.12138984 -0.26177177 0.8495 4285956238
0.11862089 -0.26036909 0.85100001 4285889676
0.12150862 -0.26016513 0.85033339 4285759118
0.12389667 -0.25896761 0.84966666 4286022541
0.12399427 -0.25668594 0.85033339 4285627528
0.12458923 -0.25365472 0.85100001 4285626503
0.12498782 -0.25022608 0.85033339 4285757825
0.12727359 -0.24933715 0.84900004 4285625732
0.12518711 -0.24739532 0.85000002 4286152328
0.12801787 -0.24710429 0.84900004 4285691523
0.13099504 -0.24635999 0.84900004 4285822592
0.12458923 -0.24470221 0.85100001 4285169544
0.12657867 -0.24495089 0.85100001 4285169522
0.10306736 -0.26827458 0.85400003 4286153880
0.10656116 -0.26827458 0.85400003 4286023311
0.10930631 -0.26727638 0.85400003 4285892485
0.11155232 -0.26727638 0.85400003 4285628814
0.11005498 -0.26577905 0.85400003 4285695109
0.11255056 -0.26527992 0.85400003 4285694860
0.11454701 -0.26428169 0.85400003 4285824382
0.11554525 -0.26228523 0.85400003 4285562504
0.11754171 -0.261287 0.85400003 4285889676
0.11903907 -0.25904095 0.85400003 4285560969
0.12128508 -0.25904095 0.85400003 4285102730
0.12153465 -0.25629583 0.85400003 4285496970
0.1235311 -0.25604627 0.85400003 4285823882
0.12203376 -0.25380027 0.85400003 4285036675
0.1235311 -0.25305158 0.85400003 4285166204
0.1235311 -0.25005689 0.85400003 4285823615
0.1235311 -0.24706219 0.85400003 4285430146
0.12403021 -0.24381794 0.85400003 4284511880
0.10430931 -0.26790231 0.85600007 4285890453
0.10581016 -0.26790231 0.85600007 4285760386
0.10280846 -0.2664015 0.85600007 4285759632
0.10656059 -0.2664015 0.85600007 4285563009
0.10956229 -0.26565105 0.85600007 4285694855
0.11181358 -0.26490062 0.85600007 4285826699
0.11331443 -0.26264936 0.85600007 4285366675
0.11481529 -0.26189891 0.85600007 4285562506
0.11631613 -0.25964764 0.85600007 4285430406
0.11781699 -0.25964764 0.85600007 4285560969
0.11631613 -0.25739637 0.85600007 4285889160
0.11881756 -0.25689608 0.85600013 4285692042
0.1208187 -0.2558955 0.85600007 4285365126
0.12156913 -0.25364423 0.85600007 4285101697
0.12231956 -0.25064251 0.85600007 4285692292
0.12231956 -0.24764082 0.85600007 4285560695
0.12231956 -0.24538952 0.85600007 4285494132
0.10455302 -0.26702392 0.85800004 4285759632
0.10380084 -0.26476738 0.85800004 4285890957
0.10680956 -0.26476738 0.85800004 4285824135
0.10956755 -0.26451665 0.85800004 4285629324
0.11207481 -0.2640152 0.85800004 4285826709
0.1040428 -0.26312274 0.86000001 4285889921
0.10705853 -0.26312274 0.86000001 4285758087
0.11007427 -0.26312274 0.86000001 4285235593
0.11283869 -0.26211748 0.85999995 4285038480
0.11508354 -0.26100647 0.85800004 4285759884
0.11384393 -0.25935307 0.86000001 4285496201
0.11521767 -0.25905061 0.85900003 4285692294
0.11626646 -0.25638935 0.85933334 4285168774
0.1182299 -0.25603837 0.85900003 4285365130
0.11685967 -0.25407553 0.86000001 4285234308
0.11942874 -0.25392693 0.85949999 4285168006
0.12110098 -0.25348467 0.85800004 4285429634
0.1198754 -0.25030586 0.86000001 4285430153
0.12110098 -0.25122812 0.85800004 4285560963
0.1198754 -0.24804406 0.86000001 4285494914
0.12110098 -0.2482194 0.85800004 4285560695
0.12110098 -0.24596286 0.85800004 4285625974
0.10579613 -0.26222327 0.86200005 4285430662
0.10881887 -0.26222327 0.86200005 4285169030
0.11108594 -0.26222327 0.86200005 4285037958
0.10957456 -0.26071191 0.86200005 4285234308
0.11209352 -0.26020813 0.86200005 4285430920
0.11461247 -0.25668156 0.86200005 4285037447
0.11562005 -0.25391072 0.86200005 4285168516
0.11788712 -0.25315505 0.86200005 4285364872
0.11813902 -0.25113988 0.86200005 4285364873
0.12015419 -0.24710955 0.86200005 4286019197
0.12015419 -0.24559818 0.86200005 4285497228
0.1060416 -0.26131681 0.86400002 4285168006
0.10831392 -0.26131681 0.86400002 4285168517
0.1098288 -0.25980192 0.86400002 4285298307
0.11210112 -0.25904447 0.86400002 4285364872
0.11285856 -0.25677213 0.86400002 4285103753
0.11437344 -0.25525728 0.86400002 4285037445
0.11513087 -0.25298494 0.86400002 4285037191
0.11588831 -0.25071263 0.86400002 4284971654
0.11790816 -0.24970274 0.86400002 4285298821
0.11841312 -0.24667297 0.86400002 4285035135
0.11740319 -0.24465314 0.86400002 4284907144
0.10348874 -0.26024288 0.86800003 4285234308
0.10670944 -0.25984591 0.8682 4285300099
0.10939906 -0.2591176 0.86780006 4284840064
0.11173029 -0.25918385 0.86700004 4284774018
0.1099565 -0.25622657 0.86900002 4285101954
0.11217476 -0.25629044 0.86750007 4285168773
0.11306545 -0.25354031 0.86850005 4285036420
0.11490294 -0.25263342 0.86800003 4284641925
0.11351167 -0.24987803 0.86900002 4285626244
0.11573008 -0.24973382 0.86849999 4285494660
0.11351167 -0.24683076 0.86900002 4285758859
0.11579715 -0.24683076 0.86900002 4285168007
0.11781085 -0.24854288 0.86700004 4285691014
0.10384643 -0.25885248 0.87100005 4285036674
0.10613716 -0.25885248 0.87100005 4285036675
0.10384643 -0.25732532 0.87100005 4285166715
0.10690074 -0.25656176 0.87100005 4285232518
0.10919147 -0.25579816 0.87100005 4285297803
0.11020956 -0.25376198 0.87100005 4285297533
0.11224577 -0.2527439 0.87100005 4285429372
0.11071862 -0.25121674 0.87100005 4285494916
0.11224577 -0.25045317 0.87100005 4285889157
0.11224577 -0.24816242 0.87100005 4286021764
0.10390867 -0.25606999 0.87366676 4285363583
0.10311266 -0.25375864 0.87450004 4285429378
0.10675725 -0.25386894 0.87400007 4285625219
0.10880047 -0.25284734 0.87400007 4285624967
0.10202209 -0.25083625 0.87500006 4284837756
0.109504 -0.25078893 0.87350011 4285559426
0.11097285 -0.24873224 0.87300003 4285495420
0.1039113 -0.25323567 0.87800002 4285232513
0.10545073 -0.25323567 0.87800002 4285493882
0.1039113 -0.25169626 0.87800002 4285100671
0.10622044 -0.25169626 0.87800002 4285165694
0.074129179 -0.27398726 0.82900006 4286217074
0.071464412 -0.27156475 0.82900006 4283917951
0.074129179 -0.27180701 0.82900006 4285365385
0.071222156 -0.26962674 0.82900006 4283919481
0.073402427 -0.26962674 0.82900006 4285365126
0.078868441 -0.27969086 0.83300006 4284048233
0.076784953 -0.2766881 0.83100003 4285691000
0.079598702 -0.27750009 0.83300006 4286746008
0.081059232 -0.27750009 0.83300006 4287074973
0.077222064 -0.27391976 0.83100003 4286482326
0.079598702 -0.27457902 0.83300006 4286285976
0.07600788 -0.27076292 0.83100003 4285891212
0.07813818 -0.27165794 0.83300006 4286088591
0.070665471 -0.2688202 0.83100003 4283852405
0.073668048 -0.26841342 0.83200002 4285497729
0.07564377 -0.26876467 0.83233339 4285891713
0.073756598 -0.26654613 0.83300006 4285299331
0.07521712 -0.26654613 0.83300006 4285168002
0.084913932 -0.28329045 0.83500004 4282995541
0.087109983 -0.28329045 0.83500004 4285230965
0.079789817 -0.28182641 0.83500004 4284245323
0.081985861 -0.2810944 0.83500004 4286350723
0.084913932 -0.2810944 0.83500004 4287009695
0.087109983 -0.2810944 0.83500004 4287865523
0.082717881 -0.27816635 0.83500004 4286813602
0.084913932 -0.27816635 0.83500004 4286945700
0.087109983 -0.27816635 0.83500004 4287012005
0.079789817 -0.27304223 0.83500004 4286219929
0.081985861 -0.27523828 0.83500004 4286484124
0.084913932 -0.27597028 0.83500004 4286551456
0.079789817 -0.27157816 0.83500004 4286351256
0.076861747 -0.26865011 0.83500004 4286219138
0.073933683 -0.26572204 0.83500004 4285561726
0.075397715 -0.26572204 0.83500004 4285561726
0.08878617 -0.28323519 0.83700001 4286876052
0.090815939 -0.28321561 0.83766669 4287205533
0.094146989 -0.28317648 0.83900005 4288061869
0.08878617 -0.28030014 0.83700001 4287142821
0.090987474 -0.28030014 0.83700001 4287208614
0.093922563 -0.28030014 0.83700001 4287537324
0.088296987 -0.27712047 0.83700007 4286749091
0.091042273 -0.27753031 0.83749998 4287012006
0.094034776 -0.27769554 0.838 4287143336
0.082182236 -0.27369621 0.83700001 4286483358
0.085117318 -0.27442998 0.83700001 4286484639
0.087948076 -0.27511176 0.83833337 4286616994
0.090469375 -0.27582127 0.83900005 4286749348
0.079247154 -0.2707611 0.83700001 4286350983
0.082182236 -0.27222866 0.83700001 4286482328
0.085320711 -0.27287915 0.83900005 4286876317
0.07704585 -0.26782605 0.83700001 4285889674
0.079191349 -0.26944673 0.83900005 4286482576
0.074110769 -0.26489097 0.83700001 4285102974
0.076404124 -0.26594296 0.83800006 4285299072
0.074199319 -0.26300263 0.83800006 4285037968
0.075668603 -0.26300263 0.83800006 4285037968
0.092159577 -0.27647874 0.84100002 4286485919
0.094371408 -0.27647874 0.84100002 4287209385
0.097320527 -0.27647874 0.84100002 4287077031
0.088473201 -0.2742669 0.84100002 4286746526
0.091422305 -0.27500418 0.84100002 4286748578
0.093634129 -0.27500418 0.84100002 4286880164
0.082574993 -0.27205509 0.84100002 4286351509
0.084786817 -0.27205509 0.84100002 4286614425
0.079871632 -0.26812294 0.84100002 4285956492
0.077414043 -0.2654196 0.84100002 4285300360
0.08952871 -0.27376461 0.84400004 4286353303
0.091748424 -0.27376461 0.84399998 4286353042
0.094833419 -0.27414331 0.84379995 4286286739
0.097629108 -0.27439579 0.84366673 4286680989
0.082771361 -0.27122402 0.84300005 4286351766
0.085829176 -0.27154487 0.84399998 4286220438
0.08804889 -0.27228478 0.84400004 4286022803
0.082998417 -0.26881737 0.84379995 4286022799
0.08519008 -0.26890436 0.84500003 4285957776
0.079815239 -0.26605082 0.84300005 4285563022
0.082870424 -0.26562563 0.84399998 4285825937
0.074730575 -0.26192608 0.84400004 4284972420
0.077079862 -0.26230761 0.84380007 4284971908
0.079910211 -0.26266572 0.84400004 4285366923
0.082162082 -0.26276943 0.84433335 4285301384
0.086876795 -0.2710259 0.84700006 4286023812
0.089104399 -0.27176845 0.84700006 4286286735
0.092322059 -0.27201596 0.84700006 4286023568
0.095044702 -0.27176845 0.84700006 4286352021
0.098014839 -0.27176845 0.84700006 4286350742
0.086381771 -0.26855075 0.84700006 4285957514
0.088361867 -0.26954082 0.84700006 4286023560
0.085391715 -0.26657069 0.84700006 4285759884
0.083906643 -0.26285797 0.84700006 4285366919
0.074996203 -0.26063037 0.84700006 4285429884
0.077223815 -0.25988784 0.84700006 4285298561
0.080193967 -0.25988784 0.84700006 4285693322
0.082421571 -0.26063037 0.84700006 4285955467
0.090803385 -0.27092156 0.84900004 4285892754
0.09378054 -0.27017727 0.84900004 4285760400
0.097501993 -0.27017727 0.84900004 4286416019
0.088074319 -0.26769629 0.84900004 4285760653
0.090964243 -0.26841736 0.85050005 4285957522
0.093752779 -0.26882425 0.85100001 4285299853
0.096985623 -0.26932162 0.85100001 4286088335
0.099969804 -0.26932162 0.85100001 4286152848
0.08559335 -0.26496726 0.84900004 4285301644
0.087981828 -0.26543492 0.85049999 4285629326
0.091017291 -0.26633745 0.85100001 4286022809
0.085048936 -0.26260722 0.85100001 4285825668
0.087287068 -0.26335329 0.85100001 4285629066
0.07666187 -0.25826865 0.84900004 4285036929
0.078894734 -0.25826865 0.84900004 4285628299
0.081967458 -0.2593171 0.85000002 4285102214
0.094582401 -0.26777551 0.85400003 4286021519
0.09732753 -0.26802504 0.85400003 4286285201
0.10032222 -0.26802504 0.85400003 4285890960
0.089092128 -0.26428169 0.85400003 4285497479
0.09133815 -0.26503038 0.85400003 4285759628
0.093584172 -0.26577905 0.85400003 4286284166
0.084600091 -0.261287 0.85400003 4285627267
0.079359375 -0.25829229 0.85400003 4285430919
0.082354069 -0.25904095 0.85400003 4285365385
0.094803907 -0.26540092 0.85600013 4286284931
0.097555466 -0.26565105 0.85600007 4286087048
0.10055717 -0.26565105 0.85600007 4285824911
0.086299069 -0.26264936 0.85600007 4285758594
0.088550344 -0.26339978 0.85600007 4285562759
0.091552064 -0.26339978 0.85600007 4285562759
0.083297364 -0.25889722 0.85600007 4285365126
0.085548639 -0.26039806 0.85600007 4285823869
0.094774678 -0.2640152 0.85800004 4285563262
0.097783402 -0.2640152 0.85800004 4285562760
0.10079212 -0.2640152 0.85800004 4285366412
0.088757239 -0.26175866 0.85800004 4285889669
0.091872916 -0.26206285 0.85900009 4285889415
0.094885133 -0.26206285 0.85900009 4285823617
0.097954795 -0.26221582 0.85949999 4286020996
0.10061913 -0.26221219 0.85866672 4285496197
0.082932666 -0.25859913 0.86000001 4285365128
0.085948393 -0.25935307 0.86000001 4285233783
0.085948393 -0.25633734 0.86000001 4285036926
0.10277339 -0.26222327 0.86200005 4285627013
0.088919125 -0.26020813 0.86200005 4285430149
0.098994955 -0.26071191 0.86200005 4285627267
0.10050633 -0.26071191 0.86200005 4285365126
0.083377428 -0.25718534 0.86200005 4285103243
0.09165024 -0.26131681 0.86400002 4286021262
0.093922555 -0.26131681 0.86400002 4284838018
0.096952319 -0.26131681 0.86400002 4285364615
0.10301184 -0.26131681 0.86400002 4285496458
0.088620484 -0.25828701 0.86400002 4285036929
0.090892799 -0.25980192 0.86400002 4285825933
0.099982083 -0.25980192 0.86400002 4285234052
0.088620484 -0.25677213 0.86400002 4284839550
0.091208398 -0.25918385 0.86700004 4285563525
0.094444528 -0.25960678 0.86739999 4285234561
0.097438574 -0.2595813 0.86833334 4285103233
0.10030674 -0.25927386 0.86900002 4285102978
0.088489853 -0.25583267 0.86766672 4284774529
0.091278531 -0.2563394 0.86766672 4284971649
0.094270594 -0.25631085 0.86860001 4285102714
0.08913333 -0.25368717 0.86900002 4285235344
0.091418803 -0.25368717 0.86900002 4284774279
0.1015557 -0.25885248 0.87100005 4285036929
0.097737819 -0.25656173 0.87100005 4285036406
0.10079212 -0.25656176 0.87100005 4285233018
0.091629207 -0.2527439 0.87100005 4285431696
0.094683506 -0.25350747 0.87100005 4284905863
0.09239278 -0.25121674 0.87100005 4287667627
0.094683506 -0.25121674 0.87100005 4285892248
0.09811186 -0.25370997 0.87433338 4284840582
0.10075574 -0.25399619 0.87400001 4285037444
0.098186672 -0.25083625 0.87500006 4285365392
0.10048792 -0.25083625 0.87500006 4285168524
0.097962238 -0.24873224 0.87300003 4288391618
0.10025823 -0.24873224 0.87300003 4287931067
