# .PCD v0.7 - Point Cloud Data file format
VERSION 0.7
FIELDS x y z rgba
SIZE 4 4 4 4
TYPE F F F U
COUNT 1 1 1 1
WIDTH 579
HEIGHT 1
VIEWPOINT 0 0 0 1 0 0 0
POINTS 579
DATA ascii
0.097941197 -0.2266639 0.79800004 4285890965
0.10050633 -0.22643071 0.79800004 4285889930
0.10283826 -0.22596432 0.79800004 4286087053
0.09806364 -0.22344451 0.79900002 4290692825
0.10082369 -0.22335128 0.79866672 4290562008
0.10362434 -0.22335128 0.79866672 4289971154
0.095035054 -0.22878808 0.80300003 4287403415
0.096322879 -0.22850318 0.80200005 4285759902
0.094331086 -0.2266762 0.80300003 4289378247
0.096322879 -0.22639391 0.80200005 4289114827
0.095035054 -0.2245643 0.80300003 4289707726
0.096382931 -0.22372052 0.80250001 4290166481
0.097789973 -0.22090641 0.80250001 4290692817
0.10030995 -0.2210196 0.80239999 4290168272
0.1037123 -0.22079322 0.80260003 4289840847
0.076923124 -0.23782654 0.80500007 4287206033
0.079040274 -0.23782654 0.80500007 4285299583
0.076217405 -0.23570937 0.80500007 4287665820
0.079040274 -0.23570937 0.80500007 4286878110
0.081157416 -0.23570937 0.80500007 4285563281
0.076452643 -0.23312175 0.80500007 4287271319
0.079040274 -0.23288652 0.80500007 4288126889
0.082286566 -0.23274536 0.80500013 4287930801
0.079745986 -0.23076935 0.80500007 4287797419
0.082568854 -0.23006363 0.80500013 4288522168
0.086097434 -0.23006365 0.80500007 4288653753
0.088214584 -0.23006365 0.80500007 4287799223
0.093860321 -0.22935793 0.80500007 4287863966
0.083509803 -0.227476 0.80500007 4288523958
0.085862197 -0.22747602 0.80500007 4288983999
0.088214584 -0.22794649 0.80500007 4289510605
0.091743171 -0.22653507 0.80500013 4289379019
0.093860321 -0.22512361 0.80500007 4289707726
0.09244889 -0.22371219 0.80500007 4290100941
0.094801277 -0.22324173 0.80500007 4290165704
0.096683189 -0.22230077 0.80500007 4290362828
0.096683189 -0.22088933 0.80500007 4290232777
0.10091749 -0.21947789 0.80500007 4289576910
0.074468449 -0.24113593 0.80900002 4286023059
0.076359712 -0.24089952 0.80900002 4285563022
0.074468449 -0.23829904 0.80900002 4286482572
0.075699292 -0.23841739 0.80700004 4287601571
0.074468449 -0.23617136 0.80900002 4286744199
0.076170944 -0.23181434 0.80699998 4287205524
0.078529172 -0.23134269 0.80700004 4287731616
0.077114232 -0.22992776 0.80700004 4287600278
0.079285294 -0.22936188 0.8075 4287600805
0.081359051 -0.22851281 0.80700004 4287996599
0.08984869 -0.22851281 0.80700004 4289378763
0.082370721 -0.22681268 0.80766672 4287996332
0.084896401 -0.22568293 0.80700004 4288983227
0.088506222 -0.22657685 0.80766678 4289377987
0.085106798 -0.22482379 0.80900002 4288719546
0.087943688 -0.22482379 0.80900002 4289311168
0.091114953 -0.22375111 0.80820006 4290034375
0.094093516 -0.22285305 0.80700004 4290493383
0.092199028 -0.2219869 0.80900002 4289640127
0.095115699 -0.22114821 0.80766672 4289838538
0.097750962 -0.22029582 0.80800003 4289379782
0.071097665 -0.24457596 0.81100005 4285955190
0.073704578 -0.24433899 0.81100005 4285364095
0.076074511 -0.24386498 0.81100005 4285496714
0.07133466 -0.24149509 0.81100005 4286020213
0.073230594 -0.24173208 0.81100005 4286218359
0.07133466 -0.23912518 0.81100005 4285427824
0.073230594 -0.23888817 0.81100005 4285954936
0.073941574 -0.23604426 0.81100005 4286612615
0.074652553 -0.23320036 0.81100005 4286153091
0.076074511 -0.23106742 0.81100005 4288060829
0.077496454 -0.22964546 0.81100005 4286679437
0.080340363 -0.22822352 0.81100005 4287601069
0.082236297 -0.22585358 0.81100005 4287929774
0.088398099 -0.22348368 0.81100005 4289245625
0.090294041 -0.2225357 0.81100005 4289180859
0.093848921 -0.22111374 0.81100005 4289116097
0.071272999 -0.24803004 0.81300002 4285299325
0.070560269 -0.24304092 0.81300002 4285493103
0.071093284 -0.23800886 0.81366664 4285295986
0.070560269 -0.23591362 0.81300002 4284245094
0.072995067 -0.2351556 0.81366664 4285625464
0.070733853 -0.23363605 0.81500006 4284574064
0.073500603 -0.23263578 0.81400001 4285494645
0.076387182 -0.23011301 0.81433338 4286613135
0.079113029 -0.22878633 0.81300002 4287732129
0.080194257 -0.22725743 0.81433338 4287469223
0.082165584 -0.22506225 0.81500006 4288323246
0.083389409 -0.22450994 0.81300002 4288456368
0.08557976 -0.22393441 0.81349999 4288654517
0.087773621 -0.2226444 0.81400001 4288721589
0.089200839 -0.22121719 0.81400001 4289116346
0.094080359 -0.22023357 0.81300002 4289904071
0.076637328 -0.22991198 0.81700003 4286744732
0.078069791 -0.2284795 0.81700003 4286877852
0.080218509 -0.22633079 0.81700003 4287599524
0.083083451 -0.22418207 0.81700003 4288127663
0.086664632 -0.22274961 0.81700003 4288788152
0.09740819 -0.21845219 0.81700003 4289903814
0.073233761 -0.23207593 0.82060003 4284969327
0.070294932 -0.22863847 0.82100004 4284180073
0.073413819 -0.22887839 0.82100004 4285560180
0.076074503 -0.2290858 0.82020009 4286153112
0.068209052 -0.22616686 0.81900007 4283194209
0.070718072 -0.22605522 0.82033342 4285100149
0.073173903 -0.22623932 0.82100004 4285692287
0.077012539 -0.22671916 0.82100004 4287269789
0.079075336 -0.22644213 0.82000005 4287532953
0.069645032 -0.22473088 0.81900007 4284112229
0.082001209 -0.22370298 0.82050008 4287732642
0.084551871 -0.22299683 0.81966668 4287931570
0.085989021 -0.22155969 0.81966668 4288655031
0.088729359 -0.22017011 0.82020009 4288786873
0.091813006 -0.21982212 0.82033342 4289049283
0.095250271 -0.21817473 0.82000005 4289772484
0.097705826 -0.21696493 0.81950003 4289773258
0.098604836 -0.21520327 0.82100004 4289378502
0.070466168 -0.23496741 0.82300001 4283850852
0.07094717 -0.23208143 0.82300001 4284706163
0.076478645 -0.22654994 0.82300001 4286810002
0.078643136 -0.22582844 0.82300001 4287732118
0.080086127 -0.22438546 0.82300001 4287536027
0.081529118 -0.22294247 0.82300001 4287864220
0.082972117 -0.22149947 0.82300001 4288390058
0.085136607 -0.22077797 0.82300001 4288588214
0.08730109 -0.22005647 0.82300001 4288851374
0.094035059 -0.2181325 0.82300001 4289771977
0.095959052 -0.21572751 0.82300001 4289115077
0.09812355 -0.21500599 0.82300001 4289509319
0.076758303 -0.22592664 0.82600003 4286548370
0.077575356 -0.22402602 0.82700002 4287008931
0.079528213 -0.22351861 0.82620013 4287535255
0.081727251 -0.22203775 0.82500005 4288061092
0.080475368 -0.22112601 0.82700002 4287403669
0.082824834 -0.22046442 0.82633334 4287930798
0.085170805 -0.219804 0.82566673 4288259763
0.088236503 -0.21914476 0.82500005 4289244853
0.091129504 -0.21914476 0.82500005 4289244095
0.086275391 -0.218226 0.82700002 4288588731
0.088692069 -0.21774267 0.82699996 4289113527
0.091350421 -0.217501 0.82700002 4289114043
0.093781412 -0.21673393 0.82500005 4289311684
0.092075422 -0.21532598 0.82700002 4289049021
0.094250433 -0.21532598 0.82700002 4289114562
0.097032972 -0.21434061 0.82600003 4289311947
0.07630945 -0.22602133 0.82900006 4285825423
0.077036202 -0.22384107 0.82900006 4286417049
0.07994324 -0.22093403 0.82900006 4287206547
0.082123511 -0.22020727 0.82900006 4287733422
0.080669992 -0.21875377 0.82900006 4287403669
0.083092518 -0.21826927 0.82900006 4287930548
0.08551503 -0.21778476 0.82900006 4288456884
0.087937556 -0.21730025 0.82900006 4288719284
0.086484045 -0.21584673 0.82900006 4288719788
0.088664316 -0.21584673 0.82900006 4288851126
0.091571346 -0.21511999 0.82900006 4288917435
0.094478369 -0.21439323 0.82900006 4289180355
0.073579505 -0.22656661 0.83100003 4285559927
0.075036526 -0.22583811 0.83100003 4286283650
0.077222064 -0.22292405 0.83100003 4286548889
0.078984454 -0.22042994 0.83166671 4286943636
0.080864608 -0.21782449 0.83100003 4287599776
0.083050139 -0.21709597 0.83100003 4287864495
0.08523567 -0.21636747 0.83100003 4288588458
0.083980285 -0.21542768 0.83300006 4288389810
0.086066753 -0.21516907 0.83200002 4288260016
0.089192949 -0.21459602 0.83166671 4288456631
0.091696702 -0.21428157 0.83233339 4288917178
0.089822389 -0.21250664 0.83300006 4288719286
0.091282919 -0.21250664 0.83300006 4288983226
0.073201664 -0.22692516 0.83500004 4285690998
0.076129735 -0.2239971 0.83500004 4286481547
0.078325778 -0.22033702 0.83500004 4287271072
0.079789817 -0.21887298 0.83500004 4287468190
0.081985861 -0.21740896 0.83500004 4287797161
0.084913932 -0.21448089 0.83500004 4288390063
0.087842003 -0.21374887 0.83500004 4288587957
0.092966117 -0.21301685 0.83500004 4288917432
0.094430149 -0.21301685 0.83500004 4288852158
0.090770066 -0.21155283 0.83500004 4289047991
0.073190272 -0.225936 0.83766669 4285689969
0.076127686 -0.22299857 0.83766669 4286546824
0.07704585 -0.22086476 0.83700001 4286547606
0.078513384 -0.21939722 0.83700001 4287205020
0.079617992 -0.21778651 0.83833337 4287795876
0.082182236 -0.21646215 0.83700001 4287730853
0.082279548 -0.21525148 0.83800006 4287929255
0.085218139 -0.21378219 0.83800006 4288193194
0.088052399 -0.21205953 0.83700001 4288851124
0.094034776 -0.21157737 0.838 4288851899
0.097334258 -0.2091338 0.83900005 4288851386
0.07446494 -0.22413209 0.84100002 4285953399
0.076431014 -0.22093724 0.84100002 4286677898
0.077414043 -0.21897116 0.84100002 4286612114
0.079625875 -0.21675932 0.84100002 4287664799
0.083312266 -0.2145475 0.84100002 4287929509
0.085524097 -0.21307296 0.84100002 4288061353
0.086261369 -0.2115984 0.84100002 4288062122
0.088473201 -0.2115984 0.84100002 4288850867
0.091668062 -0.21110688 0.84100002 4288850871
0.094371408 -0.21012385 0.84100002 4288851386
0.095108688 -0.20864929 0.84100002 4288850874
0.071248747 -0.2260751 0.84366673 4285032299
0.073163971 -0.22540416 0.84300005 4285624185
0.071115196 -0.22371656 0.84500003 4284572774
0.073656656 -0.22294073 0.84300011 4285559673
0.071855985 -0.22149421 0.84500003 4284376684
0.074078336 -0.22149421 0.84500003 4285691258
0.076300681 -0.22001265 0.84500003 4286282619
0.077782251 -0.21779031 0.84500003 4286809233
0.079076208 -0.21653581 0.84300005 4287402142
0.080745384 -0.21482715 0.84500003 4287534240
0.082589895 -0.21424125 0.84366673 4288060584
0.083214663 -0.21211095 0.84500003 4287995046
0.085548349 -0.2112828 0.84366673 4288127402
0.088683605 -0.21062356 0.84300005 4288391601
0.090900689 -0.21062356 0.84300005 4288588468
0.086177796 -0.20914783 0.84500003 4288193722
0.088840954 -0.20877686 0.84450001 4288325820
0.09169364 -0.20852964 0.84350002 4288391349
0.094349504 -0.20816012 0.84300011 4288719802
0.096812934 -0.20766743 0.84300005 4289048254
0.089634784 -0.20667854 0.84500003 4287997616
0.091857135 -0.20667854 0.84500003 4288918463
0.094595842 -0.20618938 0.84300005 4289049023
0.070540987 -0.22201847 0.84700006 4284310626
0.074253663 -0.2205334 0.84700006 4285823096
0.076481275 -0.21904832 0.84700006 4286152319
0.077223815 -0.21682072 0.84700006 4286349700
0.079451427 -0.21607818 0.84700006 4287402646
0.080936499 -0.21310803 0.84700006 4287205531
0.083164111 -0.21088043 0.84700006 4287797668
0.086134255 -0.20791027 0.84700006 4288652979
0.088361867 -0.20716774 0.84700006 4288587201
0.069382027 -0.22306696 0.85100001 4281810491
0.070086434 -0.22069864 0.85049999 4283191631
0.072749019 -0.22023416 0.84966666 4285363062
0.075173289 -0.21956556 0.84900004 4285823097
0.070128068 -0.21859069 0.85100001 4283126852
0.073303066 -0.21792209 0.85033339 4286020224
0.075728513 -0.21725465 0.84966666 4286218628
0.076842457 -0.21560653 0.85100001 4286548108
0.078987658 -0.21460712 0.85000002 4287204757
0.079826631 -0.21262234 0.85100001 4287270559
0.081687503 -0.21129566 0.84966666 4287534496
0.082810804 -0.20963816 0.85100001 4288457131
0.084667005 -0.20831616 0.84966666 4288325292
0.08803311 -0.206654 0.85100001 4288653495
0.070375293 -0.21786393 0.85400003 4283520332
0.07312043 -0.21686572 0.85400003 4284968564
0.07561601 -0.2163666 0.85400003 4286087557
0.076364681 -0.21486925 0.85400003 4285957768
0.078610703 -0.2133719 0.85400003 4286941593
0.079359375 -0.21187454 0.85400003 4287270813
0.081605397 -0.21037722 0.85400003 4287601823
0.094332844 -0.20438783 0.85400003 4288259771
0.071290538 -0.21687332 0.85600007 4284573021
0.07354182 -0.21537246 0.85600007 4285166707
0.076543525 -0.21387161 0.85600007 4286350727
0.077293947 -0.21237075 0.85600007 4286811277
0.07954523 -0.21086991 0.85600007 4287468705
0.082546934 -0.20936905 0.85600007 4287799715
0.086299069 -0.20786819 0.85600007 4288587703
0.088550344 -0.20561692 0.85600007 4288194486
0.091552064 -0.20336562 0.85600007 4288720555
0.094553769 -0.2026152 0.85600007 4288456630
0.097305328 -0.20286535 0.85600013 4288982197
0.069952741 -0.21738002 0.85800004 4282204473
0.070759855 -0.21453668 0.85866672 4283650134
0.073713645 -0.21437131 0.85800004 4285758060
0.071623668 -0.21185526 0.86000001 4284834923
0.073799551 -0.2123611 0.85900009 4285560943
0.076678872 -0.21135592 0.8592 4286284935
0.079731084 -0.20985821 0.85800004 4287009438
0.082932666 -0.20883952 0.86000001 4288192928
0.085095398 -0.20784277 0.85900003 4288127409
0.086601518 -0.20633665 0.85900003 4287864497
0.088107631 -0.20483053 0.85900003 4287602861
0.089613743 -0.20332441 0.85900003 4288457913
0.091872916 -0.20181832 0.85900009 4288981928
0.094995596 -0.2013002 0.86000001 4288324269
0.094995596 -0.19979233 0.86000001 4288324528
0.071790233 -0.21083659 0.86200005 4285032046
0.074057296 -0.21083659 0.86200005 4285560180
0.080102786 -0.20932521 0.86200005 4287008157
0.083125532 -0.20781384 0.86200005 4287994266
0.083881222 -0.20630246 0.86200005 4287732377
0.08589638 -0.20529489 0.86200005 4287339436
0.088919133 -0.20227213 0.86200005 4288127923
0.092193782 -0.20025696 0.86200005 4288784552
0.076501437 -0.20981087 0.86400002 4286481542
0.078016318 -0.20981087 0.86400002 4286942093
0.081046082 -0.208296 0.86400002 4287336084
0.081803516 -0.20678112 0.86400002 4287666072
0.084075838 -0.20526624 0.86400002 4287798173
0.08559072 -0.20375136 0.86400002 4288325030
0.087105595 -0.20375136 0.86400002 4288456616
0.088620484 -0.20072159 0.86400002 4288520376
0.090892799 -0.19996417 0.86400002 4288915126
0.076944157 -0.20873958 0.86900002 4286809993
0.079047278 -0.20825918 0.86700004 4287073167
0.079991452 -0.20645413 0.86900002 4287205522
0.082182243 -0.20545472 0.86800003 4287798174
0.084367774 -0.20445883 0.86700004 4287930537
0.085578151 -0.20289893 0.86900002 4288127655
0.087508872 -0.20241094 0.86800003 4288390568
0.088371508 -0.20035952 0.86900002 4288520368
0.091164857 -0.19934376 0.86900002 4288849334
0.094356507 -0.19860709 0.86800003 4288587949
0.097513378 -0.19731224 0.86900002 4287931046
0.07559409 -0.20922002 0.87100005 4285693828
0.07712125 -0.20692928 0.87100005 4286414734
0.079157442 -0.20591117 0.87100005 4287072919
0.082466274 -0.2031114 0.87100005 4287862947
0.084757015 -0.20234783 0.87100005 4288323494
0.085520588 -0.20005709 0.87100005 4288190880
0.088574901 -0.19929351 0.87100005 4288519601
0.09239278 -0.19776636 0.87100005 4288390571
0.094683506 -0.19776636 0.87100005 4288128171
0.097737819 -0.1962392 0.87100005 4286352523
0.073554963 -0.21147305 0.87400007 4284967793
0.074407086 -0.20864667 0.87500006 4284902768
0.075767666 -0.20740443 0.87300003 4286152317
0.07666406 -0.20546043 0.87450004 4285821816
0.079594314 -0.20434311 0.87300003 4286941588
0.076964028 -0.2027657 0.87500006 4284965727
0.079730645 -0.20239386 0.87450004 4287136130
0.082655638 -0.2012818 0.87300003 4288518297
0.080543756 -0.20020875 0.87500006 4286146895
0.082797222 -0.19932726 0.87450004 4287266930
0.085716955 -0.19822048 0.87300003 4287729041
0.08877828 -0.19822048 0.87300003 4288650404
0.091074266 -0.19822048 0.87300003 4288914341
0.085913338 -0.19637334 0.87500006 4284506466
0.088725977 -0.19662905 0.87500006 4285624943
0.091944799 -0.19614804 0.87400007 4286876031
0.094954833 -0.19603625 0.87350011 4286812308
0.097962238 -0.19515915 0.87300003 4286221706
0.10102355 -0.19515915 0.87300003 4285431929
0.095063545 -0.19319409 0.87450004 4284047703
0.098074451 -0.1930832 0.87400001 4284376924
0.071583338 -0.21090145 0.87800002 4283189323
0.07312277 -0.21013173 0.87800002 4284439645
0.073635913 -0.20756602 0.87800002 4284045901
0.074662194 -0.20551346 0.87800002 4284241487
0.07414905 -0.20294774 0.87800002 4283979345
0.076201618 -0.2024346 0.87800002 4284176982
0.07697133 -0.20012546 0.87800002 4284241732
0.07979361 -0.19986887 0.87800002 4284438336
0.090056464 -0.19627689 0.87800002 4284835155
0.073289335 -0.20521015 0.88000005 4283584588
0.107304 -0.22512801 0.80000001 4289116349
0.10870666 -0.22512801 0.80000001 4289379265
0.11291467 -0.22723198 0.80000001 4285430925
0.11431734 -0.22723198 0.80000001 4285496462
0.10611962 -0.2234448 0.79900002 4289708749
0.10870666 -0.22372532 0.80000001 4289906124
0.12178566 -0.23160394 0.80300003 4284839550
0.12319358 -0.23160394 0.80300003 4284773757
0.12108169 -0.22949204 0.80300003 4286090131
0.12319358 -0.23019601 0.80300003 4284906892
0.11038461 -0.22639391 0.80200005 4287274672
0.11225951 -0.22615956 0.80200005 4288195263
0.11568465 -0.22644155 0.80300003 4288392123
0.10757226 -0.22287847 0.80200005 4289840849
0.10991589 -0.22334719 0.80200005 4289774027
0.11259928 -0.22379044 0.80274999 4289510861
0.1069358 -0.22090642 0.80250001 4289577424
0.10953834 -0.22118707 0.80266666 4289444811
0.11193017 -0.22174844 0.80300003 4289509311
0.11926612 -0.22935793 0.80500007 4286024592
0.12444139 -0.2298284 0.80500007 4287141288
0.11573754 -0.22512361 0.80500007 4289314769
0.11856041 -0.22653507 0.80500013 4288128698
0.12138328 -0.22653507 0.80500013 4288061364
0.12420613 -0.22653507 0.80500013 4286876567
0.12679376 -0.2255941 0.80500007 4282202944
0.11362039 -0.22230077 0.80500007 4289048256
0.11573754 -0.22371219 0.80500007 4288326335
0.1185604 -0.22371219 0.80500007 4287601836
0.12161851 -0.22324173 0.80500007 4287402644
0.1239709 -0.22324173 0.80500007 4284376409
0.1263233 -0.22371219 0.80500007 4280495122
0.10303463 -0.21947789 0.80500007 4289576394
0.10656322 -0.21947789 0.80500007 4289773520
0.11079752 -0.22088933 0.80500007 4289181120
0.11291467 -0.22088933 0.80500007 4288522932
0.12750328 -0.22950432 0.80800003 4286022025
0.12836942 -0.22766067 0.80900002 4281547324
0.12978786 -0.22766067 0.80900002 4280099622
0.11602508 -0.22285305 0.80700004 4288587962
0.11885496 -0.22285305 0.80700004 4287928741
0.12097737 -0.22285305 0.80700004 4287992987
0.099753268 -0.22002319 0.80700004 4289511116
0.1035466 -0.21915001 0.80900002 4289510605
0.1063835 -0.21915001 0.80900002 4289181903
0.10908451 -0.2195866 0.80800003 4288853697
0.11231555 -0.21967392 0.80779999 4288129211
0.11588452 -0.22114821 0.80766672 4287602348
0.11844029 -0.22151409 0.80900002 4286680731
0.12127719 -0.2219869 0.80900002 4286415238
0.12299897 -0.2225357 0.81100005 4286283107
0.12584287 -0.22395766 0.81100005 4283257928
0.10095869 -0.2196918 0.81100005 4289970636
0.11020139 -0.2196918 0.81100005 4288393657
0.11446725 -0.2196918 0.81100005 4287536311
0.11873311 -0.22111374 0.81100005 4285762201
0.12086604 -0.22111374 0.81100005 4286021248
0.11631788 -0.21978998 0.81400001 4287272621
0.11831318 -0.22023357 0.81300002 4286812574
0.12045137 -0.22023357 0.81300002 4286613129
0.10049493 -0.2188081 0.81300002 4290232528
0.10405858 -0.2188081 0.81300002 4289837769
0.10632651 -0.21836275 0.81400001 4289050818
0.10976042 -0.2188081 0.81300002 4288591297
0.11261134 -0.2188081 0.81300002 4287669167
0.11474953 -0.2188081 0.81300002 4287732911
0.10027313 -0.21845219 0.81700003 4289904337
0.10313807 -0.21773595 0.81700003 4289641932
0.10600303 -0.21701971 0.81700003 4289444033
0.10886797 -0.21845219 0.81700003 4288458685
0.11244916 -0.21845217 0.81700009 4287866802
0.1153141 -0.21845219 0.81700003 4287272106
0.11731817 -0.21952172 0.82100004 4286811555
0.1005186 -0.216833 0.81900007 4289642187
0.10339057 -0.216115 0.81900007 4289247176
0.10652201 -0.21664275 0.82100004 4288983997
0.10913448 -0.21755098 0.81900007 4288851640
0.11214232 -0.21781661 0.82000005 4287998132
0.11501954 -0.21781661 0.82000005 4287208102
0.10100398 -0.21472342 0.82100004 4289181379
0.10364304 -0.21448351 0.82100004 4289181378
0.10652201 -0.21520327 0.82100004 4288917693
0.11904694 -0.22077797 0.82300001 4287204773
0.12121144 -0.22077796 0.82300001 4285757573
0.10966749 -0.21717049 0.82300001 4288391598
0.11255348 -0.21717049 0.82300001 4288062893
0.11471796 -0.21717049 0.82300001 4287603110
0.10028803 -0.21428449 0.82300001 4289509059
0.1067815 -0.21428449 0.82300001 4288851898
0.108946 -0.21572751 0.82300001 4288390834
0.10173102 -0.21284151 0.82300001 4289247177
0.10389552 -0.21284151 0.82300001 4289313223
0.118613 -0.21914476 0.82500005 4286810524
0.12150601 -0.21914476 0.82500005 4284176998
0.11065725 -0.21625176 0.82500005 4288391086
0.112827 -0.21625176 0.82500005 4287733159
0.11605518 -0.21690865 0.82566673 4287008665
0.11890054 -0.218226 0.82700002 4286613642
0.12107556 -0.218226 0.82700002 4282797389
0.099808499 -0.21335876 0.82500005 4289771461
0.107041 -0.21335876 0.82500005 4288655030
0.11006726 -0.21434061 0.82600003 4287997101
0.11276826 -0.21466906 0.82633334 4287471013
0.11600053 -0.21532598 0.82700002 4286285206
0.10367548 -0.21242598 0.82700002 4288325561
0.10585049 -0.21242598 0.82700002 4288654778
0.10875049 -0.21242598 0.82700002 4288391845
0.11918809 -0.21730025 0.82900006 4285430406
0.11482756 -0.21439323 0.82900006 4286681502
0.11846134 -0.21584673 0.82900006 4284639357
0.097385392 -0.21293971 0.82900006 4289311686
0.10247269 -0.21293971 0.82900006 4289312457
0.11192053 -0.21293971 0.82900006 4287010464
0.11482756 -0.21293971 0.82900006 4286483353
0.094706304 -0.21345343 0.83100003 4289049282
0.11805924 -0.21494085 0.833 4285493632
0.095664501 -0.21250664 0.83300006 4288917951
0.097855285 -0.21250664 0.83300006 4289114816
0.10077634 -0.21250664 0.83300006 4288785599
0.1036974 -0.21250664 0.83300006 4288983494
0.10648958 -0.21225151 0.83200002 4288588468
0.1092765 -0.21199641 0.83100003 4288062889
0.11232555 -0.21152127 0.83200002 4286616222
0.11510458 -0.21199641 0.83100003 4286219922
0.1172901 -0.21199641 0.83100003 4285625720
0.098090231 -0.21155283 0.83500004 4289049021
0.10101829 -0.21155283 0.83500004 4288916929
0.10321435 -0.21155283 0.83500004 4288917703
0.10687444 -0.21155283 0.83500004 4288326061
0.1098025 -0.21155283 0.83500004 4287603626
0.11565863 -0.21155283 0.83500004 4285167486
0.096689612 -0.21124892 0.83766669 4288720571
0.10052649 -0.21059199 0.83700007 4288785854
0.10443992 -0.21108116 0.83700007 4288654526
0.10713042 -0.21059199 0.83700001 4288194995
0.1100655 -0.21059199 0.83700001 4287471787
0.11226681 -0.21059199 0.83700001 4286287511
0.11400612 -0.2110952 0.83900005 4286155925
0.10003117 -0.20888862 0.83900005 4288916925
0.10297327 -0.20962416 0.83900005 4288456887
0.10591536 -0.20962416 0.83900005 4288325300
0.10812193 -0.20962416 0.83900005 4287272612
0.10985422 -0.21012385 0.84100002 4286879399
0.11575244 -0.2115984 0.84100002 4286352012
0.097320527 -0.20791201 0.84100002 4288916668
0.099532351 -0.20717473 0.84100002 4288850876
0.10321873 -0.20864929 0.84100002 4288587445
0.10543056 -0.20864929 0.84100002 4288783793
0.11233256 -0.21062356 0.84300005 4286681495
0.11482142 -0.21112326 0.84500003 4285694075
0.10124711 -0.20766743 0.84300005 4288720054
0.1034642 -0.20766743 0.84300005 4288456625
0.10666666 -0.20816012 0.84300011 4288192689
0.10944174 -0.20852964 0.84350002 4287272099
0.11246669 -0.20939359 0.84400004 4287074972
0.097668558 -0.20643395 0.84400004 4289179067
0.10050808 -0.20618938 0.84300005 4289179066
0.11608323 -0.21063292 0.84700006 4284903021
0.11806333 -0.21088043 0.84700006 4282073916
0.10395513 -0.20716774 0.84700006 4288522419
0.11286557 -0.20865281 0.84700006 4286152846
0.11834212 -0.21361123 0.84900004 4282207053
0.10717776 -0.20765692 0.84900004 4287667375
0.10941064 -0.20765692 0.84900004 4287206574
0.1119065 -0.20814608 0.85100001 4286678674
0.11549996 -0.20864579 0.85000002 4283980901
0.11834212 -0.2091455 0.84900004 4282139189
0.09091033 -0.20566511 0.85000002 4288654258
0.093890995 -0.20566511 0.85000002 4288785857
0.097295448 -0.20576575 0.84979999 4289114041
0.10013959 -0.20549738 0.85033339 4288982196
0.10295397 -0.206654 0.85100001 4288456368
0.10593815 -0.206654 0.85100001 4287931051
0.10966837 -0.206654 0.85100001 4286614176
0.1119065 -0.206654 0.85100001 4286283664
0.11414463 -0.206654 0.85100001 4284968038
0.10855763 -0.20738252 0.85400003 4287732657
0.09732753 -0.20438783 0.85400003 4288588470
0.10032222 -0.20438783 0.85400003 4288915888
0.10306736 -0.20538604 0.85400003 4288258476
0.10556294 -0.20588516 0.85400003 4287470505
0.10430931 -0.20486648 0.85600007 4288323244
0.10681073 -0.20536678 0.85600013 4287338407
0.10931215 -0.20586705 0.85600013 4287271069
0.112564 -0.20636734 0.85600007 4285888642
0.10055718 -0.2026152 0.85600007 4288653227
0.10280846 -0.20336562 0.85600007 4288455083
0.10479673 -0.20431592 0.86000001 4288389290
0.10705853 -0.20431592 0.86000001 4287534498
0.1099454 -0.20483053 0.85900003 4286810508
0.11207481 -0.20534514 0.85800004 4286743422
0.098186076 -0.20164561 0.85933334 4288718257
0.10102706 -0.2013002 0.86000001 4288062378
0.10371142 -0.20214824 0.85933334 4287995812
0.097257398 -0.19979233 0.86000001 4288324530
0.10102706 -0.19979233 0.86000001 4288258476
0.10328886 -0.19979233 0.86000001 4287798173
0.11184162 -0.2047911 0.86200005 4285889662
0.10604803 -0.20227213 0.86200005 4287535008
0.10881887 -0.20252402 0.86200005 4286677894
0.11108594 -0.2032797 0.86200005 4285624937
0.09597221 -0.19874559 0.86200005 4288324780
0.09849117 -0.19924939 0.86200005 4288258735
0.10050633 -0.19874559 0.86200005 4288651694
0.10277339 -0.19874559 0.86200005 4287862688
0.093922555 -0.19920672 0.86400002 4288850353
0.10578912 -0.20021665 0.86400002 4287468439
0.10907136 -0.20072159 0.86400002 4286282619
0.10073952 -0.19769184 0.86400002 4288258220
0.1022544 -0.19769184 0.86400002 4287731875
0.097288966 -0.19837828 0.86700004 4288325032
0.099569172 -0.19837828 0.86700004 4287996069
0.10412959 -0.19837828 0.86700004 4287599774
0.10653166 -0.19936714 0.86800003 4286875792
0.10869001 -0.19989841 0.86700004 4285691516
0.10056068 -0.19731224 0.86900002 4288061604
0.10360797 -0.19731224 0.86900002 4287402906
0.10766431 -0.19929351 0.87100005 4286547326
0.10995504 -0.20005709 0.87100005 4285427046
0.10079212 -0.1962392 0.87100005 4285826180
0.10308285 -0.1962392 0.87100005 4284970370
0.10690074 -0.19776636 0.87100005 4286153087
0.10919147 -0.19776636 0.87100005 4284180062
0.10420323 -0.19614804 0.87400007 4284377448
0.10638086 -0.19668981 0.87300003 4284507237
0.10815875 -0.19714043 0.87500006 4284179028
0.10037307 -0.1930832 0.87400007 4284705376
0.10202209 -0.193305 0.87500006 4285427555
0.10622044 -0.19627689 0.87800002 4284637533
0.1039113 -0.19396776 0.87800002 4284243025
