# .PCD v0.7 - Point Cloud Data file format
VERSION 0.7
FIELDS x y z rgba
SIZE 4 4 4 4
TYPE F F F U
COUNT 1 1 1 1
WIDTH 978
HEIGHT 1
VIEWPOINT 0 0 0 1 0 0 0
POINTS 978
DATA ascii
0.17249995 -0.17913456 0.68800002 4283331732
0.17430937 -0.17913456 0.68800002 4282209613
0.16713366 -0.18166703 0.69075 4284587979
0.16943315 -0.18153554 0.69025004 4283929788
0.16780014 -0.17870413 0.69100004 4284057511
0.16961747 -0.17870414 0.69100004 4283399843
0.17201181 -0.1785486 0.6904 4282937488
0.1748161 -0.1784455 0.69000006 4283255880
0.16308033 -0.18399724 0.69360006 4281891225
0.16402739 -0.18146402 0.69383335 4281763248
0.16615945 -0.1813477 0.69300002 4284981190
0.16350476 -0.17869973 0.69333333 4283730616
0.16658288 -0.17874268 0.69350004 4283268504
0.17314605 -0.17800629 0.69300002 4283985999
0.17496863 -0.17800629 0.69300002 4282404160
0.16707075 -0.17679124 0.69300002 4283126116
0.16950087 -0.17679124 0.69300002 4283590776
0.17253852 -0.17679124 0.69300002 4283459435
0.16370171 -0.18476276 0.72800004 4286493664
0.16641413 -0.18428409 0.7280001 4286887135
0.16912654 -0.18316723 0.72800004 4287144908
0.17167939 -0.18572007 0.72800004 4285172642
0.16657369 -0.1818908 0.72799999 4288529902
0.16976476 -0.1818908 0.72800004 4284841351
0.16191156 -0.1862303 0.73000002 4283207088
0.16191156 -0.18431041 0.73000002 4287150556
0.1631915 -0.18431041 0.73000002 4288795381
0.16350184 -0.18161802 0.73057139 4285969365
0.16650529 -0.18059377 0.73049998 4286559712
0.16959117 -0.18111058 0.73000002 4284579477
0.16469674 -0.17879529 0.73100001 4285442262
0.16661927 -0.17879529 0.73100001 4286359241
0.16959117 -0.17919065 0.73000002 4282733918
0.1640857 -0.20655495 0.73400003 4280766583
0.16537264 -0.20655495 0.73400003 4280634983
0.16794653 -0.2026941 0.73400003 4281028185
0.16093613 -0.18365173 0.73333335 4284783792
0.16081333 -0.18139745 0.73374999 4283998415
0.16321956 -0.18056966 0.73300004 4284720590
0.16151181 -0.17888558 0.73400003 4284786640
0.1633309 -0.1787633 0.7335 4284918736
0.16643254 -0.1779993 0.73300004 4286293181
0.16900292 -0.17799929 0.73300004 4282275647
0.16344222 -0.1763117 0.73400003 4285311703
0.1665836 -0.17623134 0.73366666 4284383387
0.16900292 -0.17671409 0.73300004 4282144592
0.1619519 -0.20582733 0.73600006 4281426804
0.16388758 -0.20582733 0.73600006 4280898936
0.16646849 -0.20518209 0.73600006 4279454838
0.16711372 -0.20324641 0.73600006 4280243323
0.159371 -0.1838896 0.73600006 4285104287
0.15808053 -0.18195392 0.73600006 4285964720
0.15969361 -0.18098609 0.73600006 4284781998
0.1610916 -0.17786749 0.73600006 4285049553
0.16130668 -0.17550166 0.73600006 4285181912
0.16388758 -0.17485644 0.73600006 4285508314
0.16646849 -0.17485644 0.73600006 4284580498
0.16120717 -0.20587859 0.7385 4281360752
0.16341746 -0.20483822 0.73825002 4281164151
0.16627386 -0.20509267 0.73800004 4280310149
0.16381866 -0.20292783 0.73860008 4281034374
0.16636993 -0.20225213 0.73842859 4281229957
0.16962403 -0.20199452 0.7385 4281029472
0.17168202 -0.20213127 0.73900002 4281880926
0.16714701 -0.20018771 0.73900002 4280375672
0.16973844 -0.20018771 0.73900002 4279915350
0.1585101 -0.18050742 0.73800004 4285043884
0.1585101 -0.17921346 0.73800004 4284192702
0.15980406 -0.17856649 0.73800004 4284916942
0.16023539 -0.17533159 0.73800009 4285312473
0.16368593 -0.17403762 0.73800009 4286427350
0.16627386 -0.17403762 0.73800004 4286617978
0.16109802 -0.17209668 0.73800004 4285050321
0.1628233 -0.17231233 0.73800009 4286494423
0.16131631 -0.1703863 0.73900002 4285442764
0.16261202 -0.1703863 0.73900002 4285903315
0.16095893 -0.20515227 0.74133331 4280771196
0.16164595 -0.20262659 0.74200004 4280903303
0.16305211 -0.20202872 0.74100006 4281035403
0.16381218 -0.20021445 0.74150002 4281493647
0.16608363 -0.19986336 0.741 4281296524
0.16954821 -0.19943027 0.74100006 4279192168
0.15785524 -0.17734353 0.74100006 4286423486
0.15915446 -0.17799315 0.74100006 4284522702
0.15720563 -0.17539471 0.74100006 4285703367
0.15958753 -0.17517817 0.741 4285050073
0.15785524 -0.17344588 0.74100006 4283999445
0.15980408 -0.17279628 0.74100006 4285115602
0.16045368 -0.17084743 0.74100006 4286362060
0.16008519 -0.20582263 0.74533337 4280310649
0.15892039 -0.20339192 0.74600005 4280181126
0.16066583 -0.20246616 0.74500006 4280509061
0.16153635 -0.20077597 0.74600005 4281427077
0.1631922 -0.19899176 0.74520004 4282086289
0.16559941 -0.19867545 0.74466664 4282085532
0.15728924 -0.20556553 0.74820006 4280702580
0.15770663 -0.20262486 0.74800003 4280639360
0.15956999 -0.20148169 0.74700004 4281164419
0.16065677 -0.19934668 0.74800009 4281758352
0.16087271 -0.196987 0.74900001 4281759640
0.1634018 -0.1962131 0.7485556 4282612899
0.16597784 -0.19615446 0.74833339 4281825173
0.15654285 -0.20265085 0.75133342 4280507776
0.15801011 -0.19948697 0.75100011 4281888138
0.1582208 -0.19711675 0.75200003 4284054159
0.16020778 -0.19639394 0.75050002 4283662235
0.16151707 -0.19382048 0.75200003 4285503669
0.16316828 -0.19343343 0.75050002 4284584111
0.16569 -0.193305 0.75000006 4281364879
0.16064006 -0.19068658 0.75160009 4288194241
0.16338655 -0.19105679 0.75150007 4285566880
0.1654726 -0.19118346 0.75200003 4284715674
0.16108751 -0.18870251 0.75000006 4288850887
0.16306001 -0.18870251 0.75000006 4285302937
0.1548292 -0.19982281 0.75475007 4285236623
0.15665857 -0.199624 0.75400001 4283661713
0.15223317 -0.19657935 0.75500005 4286812058
0.15484636 -0.19653566 0.7548334 4286944159
0.15704101 -0.19638364 0.75424999 4286813604
0.15930261 -0.19631897 0.75400001 4285895334
0.15157129 -0.19326992 0.75500005 4287601060
0.1548807 -0.19326994 0.75500005 4287339691
0.15753488 -0.19351295 0.75440001 4288063150
0.15157129 -0.1912843 0.75500005 4287865007
0.1548807 -0.19062242 0.75500005 4288195253
0.15747586 -0.19055907 0.75475001 4288129202
0.15930261 -0.1903699 0.75400001 4288522694
0.16017577 -0.18797487 0.75500005 4289378766
0.16216141 -0.18863676 0.75500005 4287801544
0.15462734 -0.18980008 0.75700003 4288458169
0.15794553 -0.18913645 0.75700003 4289182142
0.15816675 -0.18692432 0.75700003 4289445315
0.16060007 -0.18648191 0.75700003 4288918478
0.15794553 -0.18515463 0.75700003 4289576396
0.16060007 -0.18515463 0.75700003 4288392134
0.15437049 -0.18963616 0.75900006 4288786876
0.15477726 -0.18880156 0.76100004 4287998650
0.15681024 -0.18786179 0.75900006 4288985286
0.15739237 -0.18447375 0.75966674 4289247442
0.15975235 -0.18419205 0.76033336 4289510872
0.16211583 -0.1847987 0.76100004 4286617006
0.15465276 -0.18692812 0.76700002 4288917955
0.15033694 -0.19011219 0.76900005 4287472038
0.15505603 -0.18471894 0.76900005 4289246917
0.1497636 -0.19313405 0.77300006 4287273121
0.15072793 -0.19263434 0.77100003 4287865514
0.14667247 -0.18993071 0.77100003 4287143072
0.14898966 -0.19039814 0.77180004 4287208355
0.14667247 -0.18857889 0.77100003 4287669164
0.1478285 -0.18800145 0.77233338 4287734183
0.15166567 -0.1875497 0.77233338 4288457406
0.15363058 -0.18679225 0.77200007 4288983244
0.15179659 -0.18432443 0.77300006 4288589506
0.15478338 -0.18384752 0.77100003 4289312710
0.15748703 -0.18317162 0.77100009 4289510355
0.16086659 -0.18317162 0.77100003 4289116626
0.15518491 -0.18161377 0.77300006 4289379279
0.15721667 -0.18127906 0.77100003 4289773528
0.15721789 -0.17958079 0.77300006 4289773775
0.16060622 -0.17506303 0.77300006 4290300632
0.16005962 -0.1722409 0.77200001 4289643479
0.14792173 -0.19270536 0.77400005 4286812061
0.14626308 -0.18980184 0.77600002 4287469734
0.14558278 -0.18776096 0.77600002 4287337897
0.14903465 -0.18705831 0.77450001 4287601833
0.14626308 -0.18503979 0.77600002 4287798705
0.14879109 -0.18480104 0.7750001 4288129455
0.15402858 -0.18456289 0.77400005 4289181650
0.14830394 -0.1829989 0.77600002 4288459184
0.15150905 -0.18242292 0.77500004 4288590275
0.15388744 -0.18140337 0.7750001 4289182416
0.16036163 -0.18162255 0.77399999 4289643993
0.16262342 -0.18162255 0.77399999 4286491336
0.15524627 -0.17868571 0.77500004 4289576654
0.15742128 -0.17777748 0.77400005 4289905364
0.16027339 -0.17860855 0.77466673 4290497755
0.16306911 -0.17800471 0.77440006 4289643475
0.15578717 -0.17551568 0.77600002 4290168274
0.15752254 -0.17517596 0.77450001 4290168278
0.16352814 -0.17574187 0.77399999 4289905877
0.15850835 -0.17279451 0.77600002 4290037723
0.15073232 -0.18210647 0.77800006 4288655808
0.1534605 -0.18074237 0.77800006 4289116872
0.15414256 -0.17869623 0.77800006 4289380050
0.1548246 -0.17665009 0.77800006 4289774806
0.15755279 -0.1739219 0.77800006 4290299352
0.16164507 -0.17119372 0.77800006 4289379796
0.16300917 -0.17119372 0.77800006 4289314003
0.15170483 -0.18090542 0.78066665 4288984258
0.14994419 -0.17801593 0.78100002 4288984013
0.15205696 -0.17833486 0.78059995 4289247955
0.15395361 -0.17790152 0.78050005 4289445842
0.14994419 -0.17596191 0.78100002 4289180870
0.15199822 -0.17527722 0.78100002 4289444563
0.15463743 -0.17516501 0.78050005 4289839309
0.15659021 -0.17436901 0.78000003 4290233559
0.15199822 -0.1732232 0.78100002 4289575894
0.15496515 -0.17276675 0.78099996 4290365136
0.15737481 -0.17242762 0.78049999 4290103260
0.16021433 -0.17185384 0.78100002 4289446357
0.15747562 -0.1704845 0.78100002 4290036695
0.15952966 -0.1704845 0.78100002 4289970904
0.14864759 -0.1816804 0.78500003 4288457658
0.14887698 -0.17869826 0.78500003 4289049544
0.14843386 -0.17567262 0.78460008 4288917441
0.15032817 -0.17503965 0.78300005 4289246411
0.14914554 -0.1732004 0.78400004 4289048776
0.15078579 -0.17275156 0.78300005 4289509583
0.15376033 -0.17229395 0.78300005 4289905106
0.15127176 -0.16983575 0.78433341 4289773263
0.15405451 -0.16974434 0.78300005 4290101971
0.15731871 -0.16943075 0.78500003 4290233557
0.16082887 -0.17045118 0.78400004 4290036183
0.14971626 -0.17179424 0.78700006 4289641160
0.14971626 -0.17041436 0.78700006 4289379530
0.16006531 -0.1690345 0.78700006 4290035925
0.14732997 -0.17568925 0.78900003 4289049026
0.14802167 -0.17292251 0.78900003 4289311175
0.14603907 -0.17026313 0.7895 4289377738
0.14823504 -0.16982628 0.78939998 4289313224
0.15118182 -0.16847977 0.78925002 4289444810
0.15493855 -0.16808067 0.78900003 4289970385
0.15770534 -0.16808067 0.78900003 4289905366
0.16067547 -0.1682937 0.79000002 4289839830
0.14890184 -0.16690856 0.79000002 4288919509
0.15097953 -0.16621599 0.79000002 4289182154
0.15440948 -0.16618077 0.78983331 4289641677
0.15780526 -0.16611035 0.7895 4290036440
0.16067547 -0.16690856 0.79000002 4290102488
0.1516721 -0.16344574 0.79000002 4289313744
0.15351893 -0.1636766 0.79000002 4289445326
0.13816969 -0.17844026 0.79200006 4287733681
0.17053798 -0.17819478 0.79400003 4289248719
0.17193012 -0.1774987 0.79400003 4288787659
0.1726262 -0.17541046 0.79400003 4288655037
0.1747144 -0.1747144 0.79400003 4288720054
0.14789017 -0.16871975 0.79200006 4289248723
0.16108224 -0.16594248 0.79200006 4289643220
0.14859501 -0.16360703 0.79280007 4289116369
0.15066744 -0.16385952 0.79200006 4289182158
0.15483336 -0.1631652 0.79200006 4289709011
0.1573271 -0.1634803 0.79257149 4289970905
0.16009685 -0.16427332 0.79400003 4289905876
0.14902352 -0.16043279 0.79359996 4289181904
0.1515526 -0.16058926 0.79300004 4289576916
0.15415588 -0.16082695 0.79280007 4289577169
0.1461754 -0.15800865 0.79400003 4289312711
0.14826362 -0.15800865 0.79400003 4289378252
0.15174398 -0.15800865 0.79400003 4289380051
0.16329145 -0.16538492 0.79600006 4289051333
0.16050014 -0.16329145 0.79600006 4289839314
0.16352406 -0.16352406 0.79600006 4289445835
0.15561534 -0.1598023 0.79600006 4289839829
0.15770884 -0.16050014 0.79600006 4289379796
0.1598023 -0.16050014 0.79600006 4289707986
0.16398928 -0.16050014 0.79600006 4288984012
0.16538492 -0.16050014 0.79600006 4289049556
0.14793926 -0.15701102 0.79600006 4289115847
0.15107948 -0.15735993 0.79600006 4289181903
0.15468492 -0.15794145 0.79600006 4289510611
0.15770884 -0.15770884 0.79600006 4289575891
0.1598023 -0.15770884 0.79600006 4289641678
0.14793926 -0.15491752 0.79600006 4289181128
0.1514284 -0.15561534 0.79600006 4288984267
0.15770884 -0.15561534 0.79600006 4289770443
0.1598023 -0.15561534 0.79600006 4289903824
0.16160299 -0.16300213 0.79800004 4289773008
0.16300213 -0.16300213 0.79800004 4289576910
0.170424 -0.162008 0.80000001 4288786364
0.17196254 -0.16355619 0.79900002 4288785864
0.17884 -0.16341066 0.80000001 4287338922
0.18024266 -0.16341066 0.80000001 4286879907
0.16160299 -0.16090339 0.79800004 4289379021
0.16300213 -0.16090339 0.79800004 4289049549
0.17884 -0.16060533 0.80000001 4287537072
0.18024266 -0.16060533 0.80000001 4286749096
0.15460718 -0.15600634 0.79800004 4289705420
0.15600634 -0.15670592 0.79800004 4289706450
0.16160299 -0.1574055 0.79800004 4289575628
0.16370171 -0.1574055 0.79800004 4289049039
0.14831096 -0.15320802 0.79800004 4289114305
0.15110928 -0.1539076 0.79800004 4289378765
0.1539076 -0.1539076 0.79800004 4289247694
0.16370171 -0.1539076 0.79800004 4288787152
0.16090339 -0.15110928 0.79800004 4289048267
0.16370171 -0.15110928 0.79800004 4288851648
0.1604037 -0.14849594 0.79900002 4288787400
0.16352709 -0.14839302 0.7992 4288524742
0.15709865 -0.14587733 0.80000001 4288523197
0.159904 -0.14587733 0.80000001 4289048513
0.162008 -0.14587733 0.80000001 4288981949
0.15639733 -0.14377333 0.80000001 4288720830
0.14517599 -0.130448 0.80000001 4288655551
0.14307201 -0.128344 0.80000001 4288720061
0.17377067 -0.16321737 0.80250001 4288522435
0.17593627 -0.16326843 0.80274999 4288391099
0.16965516 -0.16050364 0.80300003 4288589240
0.17528687 -0.1612076 0.80300003 4288391357
0.10489053 -0.15416797 0.80300003 4286875285
0.10489053 -0.15276004 0.80300003 4286613129
0.10629846 -0.15276004 0.80300003 4286547336
0.10981828 -0.15276004 0.80300003 4287007395
0.1581945 -0.14413276 0.80200005 4288917180
0.16030376 -0.14413276 0.80200005 4289047998
0.16351871 -0.14523233 0.80225003 4289048001
0.16599742 -0.14559884 0.80233335 4288917187
0.15749142 -0.1420235 0.80200005 4288588986
0.16050364 -0.14220059 0.80300003 4288522938
0.16613534 -0.14220059 0.80300003 4288719297
0.14694512 -0.13288337 0.80200005 4288589513
0.14928873 -0.1333521 0.80200005 4288260286
0.15186673 -0.13358647 0.80200005 4288523453
0.15477595 -0.13366975 0.80250001 4288588727
0.13727285 -0.13093719 0.80300003 4288193982
0.14132042 -0.13007104 0.80200005 4288522425
0.14694512 -0.13147721 0.80200005 4288589253
0.14874351 -0.13073081 0.80260003 4288786112
0.1519614 -0.13085522 0.80250001 4288786622
0.15482393 -0.13089621 0.80275005 4288786365
0.15768778 -0.13093719 0.80300003 4288917183
0.13727285 -0.12882529 0.80300003 4288193725
0.14132042 -0.12866487 0.80200005 4288455864
0.14553894 -0.12866487 0.80200005 4288523708
0.14853626 -0.12882529 0.80300003 4288852161
0.15205607 -0.12882529 0.80300003 4288588992
0.15416797 -0.12882529 0.80300003 4288654526
0.1612076 -0.12882529 0.80300003 4288456900
0.1633195 -0.12882529 0.80300003 4288456641
0.16613534 -0.12882529 0.80300003 4288653762
0.16824724 -0.12882529 0.80300003 4288259005
0.17501774 -0.15878625 0.80500007 4287996859
0.10691608 -0.15490481 0.80500007 4286743710
0.10726894 -0.15172909 0.80500007 4286943128
0.11032704 -0.1512586 0.80500007 4286812062
0.11291467 -0.15102337 0.80500007 4286746267
0.11362039 -0.14890622 0.80500007 4286877854
0.1155023 -0.14796527 0.80500007 4286613914
0.11644325 -0.14608335 0.80500007 4287008159
0.11926612 -0.1397319 0.80500007 4287404201
0.11926612 -0.13690904 0.80500007 4287140518
0.12138328 -0.13620332 0.80500007 4287535526
0.12350042 -0.13620332 0.80500007 4287667616
0.1185604 -0.1347919 0.80500007 4287469227
0.12138328 -0.1347919 0.80500007 4287339435
0.12350042 -0.1347919 0.80500007 4287274409
0.15596339 -0.12914616 0.80500007 4288589251
0.15808055 -0.12914616 0.80500007 4288391361
0.16019769 -0.12914616 0.80500007 4288456898
0.13761476 -0.12773472 0.80500007 4288588227
0.1397319 -0.12773472 0.80500007 4288916168
0.14255476 -0.12773472 0.80500007 4288784829
0.15102337 -0.12773472 0.80500007 4287930817
0.15455195 -0.12773472 0.80500007 4288390845
0.15737483 -0.12773472 0.80500007 4287865792
0.10399809 -0.15493593 0.80700004 4286612618
0.10541303 -0.15210605 0.80700004 4286745484
0.10965785 -0.15069111 0.80700004 4287139740
0.10992961 -0.14964612 0.80900002 4286746012
0.11255742 -0.14866032 0.8075 4286811037
0.11553109 -0.14601013 0.80850005 4286943393
0.11605507 -0.14269592 0.80820006 4287205792
0.11814749 -0.14290895 0.80700004 4287336864
0.11635617 -0.13995837 0.80766672 4286943911
0.11814749 -0.14007905 0.80700004 4287536046
0.11673256 -0.13795665 0.80700004 4287206315
0.11814749 -0.13795665 0.80700004 4287535280
0.11209732 -0.14764616 0.81100005 4286680736
0.11446725 -0.14503923 0.81100005 4286811293
0.11446725 -0.14219534 0.81100005 4287075489
0.12686594 -0.13399324 0.81300002 4287667891
0.13027284 -0.13341096 0.81380004 4287733682
0.12696998 -0.13053538 0.81366676 4287667366
0.13036296 -0.13056611 0.8138572 4287471022
0.1336268 -0.13053536 0.81366676 4287799738
0.13659286 -0.13016659 0.81433338 4288259768
0.14610966 -0.12900412 0.81300002 4288588733
0.14824784 -0.12900412 0.81300002 4288522940
0.13003597 -0.12789252 0.81500006 4287865522
0.13313206 -0.12741621 0.81500006 4287931316
0.13646632 -0.12732093 0.81500006 4288326079
0.13986604 -0.127022 0.81400001 4288654016
0.142546 -0.12686594 0.81300002 4288982465
0.14548677 -0.12694353 0.81350005 4288653752
0.14824784 -0.12686594 0.81300002 4289509309
0.15109876 -0.1261532 0.81300002 4291284686
0.15413903 -0.1270211 0.81400001 4289836998
0.15764134 -0.12625664 0.81366664 4290363088
0.13360839 -0.12503459 0.81500006 4288325813
0.13646632 -0.12503459 0.81500006 4288326590
0.13995239 -0.1242434 0.81450003 4288391606
0.14272134 -0.12416669 0.81400001 4288325048
0.1453978 -0.12445599 0.81433338 4288259771
0.14861253 -0.12503459 0.81500006 4291023323
0.15075599 -0.12503459 0.81500006 4291548637
0.16004428 -0.12503459 0.81500006 4290493385
0.16290221 -0.12503459 0.81500006 4291019215
0.14003874 -0.12217665 0.81500006 4288327095
0.14289668 -0.12146217 0.81500006 4287998389
0.14504011 -0.12217665 0.81500006 4288328644
0.12749013 -0.12820637 0.81700003 4288061622
0.13035506 -0.12677389 0.81700003 4287930033
0.13250378 -0.12677389 0.81700003 4287667881
0.13680121 -0.12677389 0.81700003 4288721101
0.13059381 -0.12486392 0.81700009 4288390067
0.13298127 -0.12438643 0.81700009 4288193718
0.13632372 -0.12438643 0.81700009 4288326335
0.13823368 -0.12390894 0.81700003 4288523960
0.14682852 -0.12390894 0.81700003 4288588747
0.14897722 -0.12390894 0.81700003 4291811819
0.15255842 -0.12534142 0.81700003 4291350740
0.15470713 -0.12534142 0.81700003 4291548125
0.15757206 -0.12534142 0.81700003 4291020760
0.16043702 -0.12390894 0.81700003 4290230987
0.13393626 -0.12176023 0.81700003 4288653496
0.13608497 -0.12176023 0.81700003 4288522937
0.13871115 -0.12152148 0.81700009 4288392631
0.14611229 -0.12176023 0.81700003 4290365400
0.14897722 -0.12247647 0.81700003 4291483110
0.1389499 -0.11961152 0.81700003 4288457143
0.14181486 -0.11961152 0.81700003 4288063153
0.1129997 -0.13747098 0.82100004 4287335838
0.11501867 -0.13658381 0.82000005 4287599522
0.11818115 -0.1362745 0.81900007 4287731367
0.11587867 -0.13459201 0.82100004 4287468706
0.11829617 -0.13381949 0.81980002 4287534501
0.12379585 -0.13315251 0.82100004 4287799217
0.12446445 -0.13094041 0.82066673 4287668142
0.12564826 -0.12852022 0.81900007 4287732909
0.1279574 -0.12723941 0.82000005 4287864763
0.12867713 -0.12508193 0.82000005 4287931058
0.13011488 -0.12364419 0.82000005 4288258482
0.1522139 -0.12421227 0.81900007 4290955980
0.15508583 -0.12421227 0.81900007 4291876569
0.15795779 -0.12421227 0.81900007 4290296775
0.16420873 -0.12393466 0.82033342 4289902535
0.13155261 -0.12220646 0.82000005 4287798953
0.13299033 -0.12220646 0.82000005 4288258738
0.14144404 -0.12134031 0.81900007 4288392120
0.14808653 -0.12076873 0.82000005 4290889945
0.15160109 -0.12142397 0.8195715 4288653237
0.15473224 -0.12143791 0.81966668 4288192426
0.15760654 -0.12143791 0.8196668 4287994534
0.16080184 -0.12134532 0.82042867 4288192168
0.16372889 -0.12201651 0.82033342 4289245624
0.13442808 -0.11933099 0.82000005 4288587964
0.13658467 -0.11933099 0.82000005 4288587455
0.1396302 -0.11875766 0.82100004 4288194743
0.14178944 -0.11875766 0.82100004 4288719284
0.11255348 -0.13708436 0.82300001 4287336600
0.11543946 -0.13419837 0.82300001 4287468706
0.11832544 -0.1320339 0.82300001 4287600038
0.12193294 -0.1320339 0.82300001 4286747559
0.12193294 -0.13059089 0.82300001 4287601069
0.12409742 -0.1291479 0.82300001 4287666604
0.1269834 -0.1269834 0.82300001 4287667633
0.1291479 -0.12337592 0.82300001 4287931056
0.13059089 -0.12193294 0.82300001 4287931308
0.1327554 -0.12048995 0.82300001 4288062642
0.16377974 -0.12048995 0.82300001 4289179062
0.13491987 -0.11760395 0.82300001 4288129463
0.13708436 -0.11760395 0.82300001 4288391103
0.14934981 -0.11904694 0.82300001 4290824666
0.15151431 -0.11832544 0.82300001 4289970635
0.15440029 -0.11832544 0.82300001 4289706195
0.15728626 -0.11832544 0.82300001 4289312459
0.15993176 -0.11856595 0.82300001 4289642186
0.16233675 -0.11904694 0.82300001 4290100164
0.1090789 -0.13892098 0.82620001 4286810771
0.11020051 -0.13630062 0.82700002 4286678923
0.11258592 -0.13572992 0.82500005 4287205526
0.12222925 -0.13524775 0.82500005 4287140520
0.12367576 -0.13669425 0.82500005 4287470001
0.11092551 -0.13412562 0.82700002 4286877854
0.1130317 -0.13331953 0.82650006 4287009439
0.11547891 -0.13283692 0.82500005 4287337378
0.12126493 -0.13331909 0.82500005 4287337384
0.17526758 -0.13283692 0.82500005 4288127419
0.17813604 -0.1332393 0.82600003 4287536313
0.18100917 -0.13315894 0.82699996 4287336355
0.18342584 -0.1326756 0.82700002 4286413439
0.11382552 -0.1305006 0.82700002 4287204765
0.11600053 -0.1305006 0.82700002 4287468451
0.11890054 -0.1305006 0.82700002 4287929000
0.12126493 -0.12994392 0.82500005 4287797673
0.17835082 -0.1305006 0.82700002 4287074993
0.11914221 -0.12784225 0.82699996 4288060074
0.12165241 -0.12744629 0.82600009 4288060075
0.12439901 -0.12729201 0.82500005 4287864239
0.12656876 -0.12656876 0.82500005 4287536559
0.1754508 -0.12760058 0.82700002 4288061359
0.17835082 -0.12760058 0.82700002 4285888652
0.18052582 -0.12832558 0.82700002 4284703589
0.11962555 -0.12542558 0.82700002 4287994280
0.12180056 -0.12470058 0.82700002 4287732138
0.12470058 -0.12470058 0.82700002 4287667373
0.12736872 -0.12447396 0.82550007 4287668140
0.12252556 -0.12252556 0.82700002 4287666614
0.12470058 -0.12252556 0.82700002 4287666863
0.12760058 -0.12252556 0.82700002 4287733418
0.13004853 -0.12136253 0.82566673 4287931571
0.1305006 -0.11962555 0.82700002 4287932088
0.13353416 -0.11904579 0.82633334 4287932083
0.14819121 -0.11864053 0.82620001 4290298835
0.16128474 -0.11788975 0.82500005 4289380814
0.13613494 -0.11658439 0.82600003 4288193714
0.15297571 -0.11672553 0.82700002 4288850374
0.15496311 -0.11585939 0.82600003 4289244868
0.1576685 -0.11644325 0.82500005 4287865026
0.16022573 -0.11672553 0.82700002 4289115325
0.10610647 -0.13953727 0.82900006 4286679183
0.10683323 -0.13735701 0.82900006 4287271061
0.10828675 -0.13663025 0.82900006 4287073683
0.10925575 -0.13396548 0.82900006 4286614944
0.11119377 -0.13299648 0.82900006 4286682267
0.11216278 -0.13105845 0.82900006 4286942606
0.18168917 -0.13081621 0.82900006 4285823105
0.11482756 -0.12863594 0.82900006 4287336602
0.11749233 -0.12766694 0.82900006 4287731623
0.11846133 -0.12500215 0.82900006 4287468450
0.17587513 -0.12500215 0.82900006 4286481042
0.17853989 -0.12524439 0.82900006 4285031784
0.11991484 -0.12282188 0.82900006 4287205533
0.12185287 -0.12185287 0.82900006 4287665831
0.12500215 -0.12136836 0.82900006 4287798186
0.12790918 -0.12136836 0.82900006 4287536042
0.17587513 -0.12282188 0.82900006 4285493378
0.12209512 -0.11991484 0.82900006 4288190634
0.12500215 -0.11991484 0.82900006 4287798183
0.12790918 -0.11918809 0.82900006 4287404202
0.13081621 -0.11773458 0.82900006 4287799725
0.13299648 -0.11773458 0.82900006 4287866285
0.14898512 -0.11700783 0.82900006 4289442239
0.1511654 -0.11700783 0.82900006 4289113539
0.13081621 -0.11555431 0.82900006 4287995559
0.13299648 -0.11555431 0.82900006 4287930283
0.15189216 -0.11555431 0.82900006 4289373884
0.15334566 -0.11555431 0.82900006 4289505726
0.10442766 -0.13948029 0.833 4286481809
0.10442766 -0.13655925 0.83300006 4286023059
0.10612532 -0.13639444 0.83200002 4286678929
0.10685471 -0.13347688 0.83200008 4286482837
0.10854799 -0.13331732 0.83100003 4286287262
0.1096076 -0.13147926 0.83166671 4286876312
0.11212771 -0.12963884 0.83233339 4286876053
0.11903293 -0.1234145 0.83300006 4287073680
0.1203488 -0.12107731 0.83200002 4287664547
0.14532241 -0.12049345 0.83300006 4289838021
0.12166117 -0.11874713 0.83100003 4288123038
0.12418947 -0.11835555 0.83166671 4287795627
0.12712499 -0.11765436 0.83100003 4287468963
0.13477434 -0.1172901 0.83100003 4287997103
0.14337504 -0.11805924 0.833 4288981940
0.14605267 -0.11830267 0.83300006 4290034371
0.14788753 -0.1172901 0.83100003 4289441980
0.12487503 -0.11611187 0.83300006 4287796389
0.12759036 -0.11519692 0.83166671 4287270554
0.1311318 -0.11437608 0.83100003 4288323489
0.13404584 -0.11510458 0.83100003 4288257962
0.13582899 -0.11465134 0.83300006 4288651948
0.13801977 -0.11465134 0.83300006 4288652729
0.14386187 -0.11611187 0.83300006 4288716974
0.14605267 -0.11611187 0.83300006 4289770434
0.15225859 -0.11437608 0.83100003 4288915634
0.12779608 -0.11319081 0.83300006 4286150268
0.12925661 -0.11319081 0.83300006 4286349695
0.15262504 -0.11319081 0.83300006 4287733413
0.15408558 -0.11319081 0.83300006 4287930535
0.10321435 -0.14201124 0.83500004 4286416273
0.10321435 -0.13908316 0.83500004 4286021515
0.10394637 -0.1361551 0.83500004 4286284946
0.10467838 -0.13395905 0.83500004 4286546572
0.10614242 -0.13249502 0.83500004 4286284683
0.10760645 -0.13103099 0.83500004 4286679437
0.1098025 -0.13029897 0.83500004 4286678163
0.11273056 -0.12810291 0.83500004 4286876314
0.11565863 -0.12737089 0.83500004 4287336605
0.11785469 -0.12517485 0.83500004 4287270811
0.11931872 -0.12151477 0.83500004 4287534232
0.12078276 -0.11931872 0.83500004 4288057245
0.12371082 -0.11785469 0.83500004 4287729579
0.12419882 -0.11541462 0.83500004 4286611080
0.13981518 -0.11492661 0.83500004 4288981438
0.14201124 -0.11565863 0.83500004 4288652729
0.1449393 -0.11492661 0.83500004 4288718521
0.14713535 -0.11492661 0.83500004 4288587707
0.15079543 -0.11565863 0.83500004 4289309885
0.12737089 -0.11273056 0.83500004 4285623662
0.13029897 -0.11273056 0.83500004 4286151801
0.13249502 -0.11346258 0.83500004 4287007373
0.1449393 -0.11273056 0.83500004 4287929263
0.14786737 -0.11273057 0.83500004 4287863708
0.15123466 -0.11258416 0.83500004 4287534492
0.10058566 -0.13950002 0.83749998 4286086536
0.10117581 -0.13694322 0.83833337 4285429375
0.10284965 -0.13590963 0.83800006 4286612622
0.10346156 -0.13427991 0.83700001 4286743695
0.10517984 -0.13312973 0.83900005 4286481027
0.10665088 -0.13165869 0.83900005 4286350472
0.10872683 -0.13003245 0.83800006 4286941328
0.11079927 -0.12767598 0.83700001 4287203481
0.11300057 -0.1269422 0.83700001 4287204766
0.11272057 -0.12506685 0.83819997 4286939784
0.11593566 -0.1247409 0.83700001 4287730577
0.11813696 -0.12400713 0.83700001 4287205522
0.11538482 -0.12199927 0.83833337 4286807666
0.11827812 -0.12195047 0.83800006 4287205268
0.11621268 -0.1198903 0.83900005 4285360468
0.1197474 -0.11901188 0.83800006 4286676599
0.12180582 -0.11813696 0.83700001 4287400334
0.12214684 -0.11627317 0.83766669 4285952624
0.12430344 -0.11400612 0.83900005 4285951344
0.1489553 -0.11593565 0.83700001 4289113535
0.12562457 -0.1131347 0.83800006 4286411893
0.12798107 -0.11179955 0.83900005 4286017905
0.13018763 -0.11106402 0.83900005 4285754983
0.14528647 -0.11079927 0.83700001 4286349193
0.14748776 -0.11079927 0.83700001 4286086775
0.098057799 -0.14081983 0.84100002 4286019699
0.099532351 -0.13934529 0.84100002 4285889392
0.099532351 -0.13713345 0.84100002 4285099373
0.1010069 -0.13492163 0.84100002 4285163627
0.10297298 -0.1339386 0.84100002 4286545795
0.10616784 -0.13123524 0.84100002 4286481284
0.11870154 -0.1201761 0.84100002 4286807932
0.11796427 -0.11870154 0.84100002 4285229914
0.1201761 -0.117227 0.84100002 4284705122
0.1231252 -0.11427788 0.84100002 4286083178
0.12681159 -0.11132877 0.84100002 4286478460
0.10358606 -0.13244329 0.84400004 4284967788
0.10617398 -0.12982294 0.84300011 4286152569
0.10937645 -0.12933025 0.84300005 4286744458
0.14148961 -0.11482142 0.84500003 4288849075
0.13318408 -0.11246581 0.84400004 4285953130
0.16057006 -0.19635384 0.69774997 4283262580
0.16139433 -0.193305 0.70000005 4282936182
0.16848832 -0.20798741 0.70400006 4284311641
0.16725397 -0.20490156 0.70400006 4284375906
0.16836865 -0.20598993 0.70350003 4284114270
0.16601963 -0.20243287 0.70400006 4284705904
0.16455121 -0.19906381 0.70300001 4285033331
0.16578381 -0.19968012 0.70300001 4284705401
0.16953915 -0.21744782 0.70666671 4284178546
0.16920631 -0.21507175 0.70700002 4284111727
0.16896698 -0.21167292 0.70600003 4284508530
0.16796669 -0.20763411 0.70700002 4284639077
0.16896698 -0.20981614 0.70600003 4284771168
0.16660917 -0.20562962 0.70650005 4284836201
0.16533145 -0.20248516 0.7063334 4284837239
0.17006631 -0.21972071 0.708 4284112233
0.16906253 -0.21381462 0.70899999 4284310897
0.16820426 -0.2110312 0.708 4284639596
0.16820426 -0.20916916 0.708 4284769632
0.16572155 -0.20606576 0.708 4284836201
0.1706423 -0.2218975 0.71300006 4283849314
0.16840035 -0.21419509 0.71233338 4284442476
0.16704708 -0.21005547 0.71100003 4284835942
0.16704708 -0.20880885 0.71100003 4285231215
0.16517715 -0.20569229 0.71100003 4284441961
0.17010489 -0.22283113 0.71600002 4283981676
0.16986732 -0.22064033 0.71500003 4284046951
0.16936965 -0.21782129 0.71466666 4284113765
0.16759412 -0.21467112 0.71600002 4284244580
0.16837786 -0.21594931 0.71400005 4284376684
0.16675718 -0.21153265 0.71600002 4284638823
0.1688495 -0.21278805 0.71600002 4285033581
0.16508333 -0.20776649 0.71600002 4284113763
0.16462222 -0.20530832 0.71400005 4284244325
0.16587409 -0.20468238 0.71400005 4283916133
0.17012331 -0.22628573 0.71820009 4284113511
0.16955698 -0.22376478 0.71900004 4283981676
0.16876973 -0.22062211 0.71780002 4284243814
0.16743192 -0.21715823 0.71800005 4284376169
0.16680336 -0.21401274 0.71800005 4284704873
0.16577505 -0.21178864 0.71900004 4284508520
0.16451439 -0.20737638 0.71900004 4284244072
0.16594248 -0.20931379 0.71700001 4284705125
0.16451439 -0.20611572 0.71900004 4284573030
0.16773264 -0.22912912 0.72200006 4284046691
0.1685304 -0.2291256 0.72000003 4284112229
0.16663679 -0.2253384 0.72000003 4284178278
0.16908008 -0.22659905 0.72100002 4284178537
0.16686824 -0.22312132 0.72100008 4284440677
0.16899855 -0.2240655 0.72200006 4284309095
0.16698352 -0.22011566 0.72150004 4284375656
0.16646673 -0.21773596 0.72200006 4284573286
0.16646673 -0.21520415 0.72200006 4284705901
0.16520083 -0.20950757 0.72200006 4283916383
0.16646673 -0.20570986 0.72200006 4284376939
0.16796495 -0.23198178 0.72300005 4283191381
0.16715841 -0.2281744 0.72500002 4284244321
0.16669729 -0.22627731 0.72300005 4283915617
0.16638039 -0.22342509 0.72300005 4284571748
0.16461608 -0.21991184 0.72500002 4284113265
0.16542964 -0.22057283 0.72300005 4284375656
0.16461608 -0.2173695 0.72500002 4284179561
0.16542964 -0.21740369 0.72300005 4284573543
0.16507021 -0.22370517 0.72700006 4284375914
0.16387063 -0.21743087 0.72733337 4284245354
0.16469674 -0.22301346 0.73100001 4283784303
0.16383147 -0.22014853 0.73000002 4284376682
0.16330327 -0.21773726 0.73049998 4284442988
0.16514735 -0.22555144 0.73300004 4283257174
0.1607042 -0.22370014 0.73325002 4282731587
0.163275 -0.22370014 0.73325002 4282994769
0.16079529 -0.22061051 0.73366666 4283060302
0.16289826 -0.22073196 0.73300004 4283652699
0.15765096 -0.21813746 0.73400003 4282140737
0.15277582 -0.20748158 0.76100004 4283125334
0.16247176 -0.17056164 0.76900005 4289052884
0.13634402 -0.18434328 0.79350001 4286943134
0.10628268 -0.17547536 0.81366676 4285694345
0.10561291 -0.17269282 0.81400001 4286219655
0.10601477 -0.16993921 0.81380004 4286153095
0.10477131 -0.16749156 0.81300002 4286152328
0.10423567 -0.16965342 0.82000005 4286152328
0.10362989 -0.16633435 0.81900007 4286545282
0.10317402 -0.16883022 0.82300001 4287071623
0.10069305 -0.1724117 0.82633346 4286217093
0.10342475 -0.17213351 0.82500005 4286546310
0.10082106 -0.16938516 0.82499999 4286413446
0.10296714 -0.15481584 0.83300006 4286348429
0.096583247 -0.16588725 0.84100002 4286086525
0.096583247 -0.16441269 0.84100002 4285954683
0.094524831 -0.16076663 0.84900004 4285231714
0.16461608 -0.21482717 0.72500002 4284377450
0.16542964 -0.21423455 0.72300005 4284442730
0.16419236 -0.21164925 0.72500008 4284837485
0.16542964 -0.21169922 0.72300005 4284574053
0.16383515 -0.20850658 0.72380006 4284311142
0.16461608 -0.20656459 0.72500002 4284641921
0.16352026 -0.21412905 0.72766668 4284443760
0.16302027 -0.21190554 0.72733337 4284771188
0.16300762 -0.20830455 0.72775 4283326572
0.16191156 -0.2131089 0.73000002 4285100160
0.16266243 -0.21517563 0.73049998 4284509563
0.16191156 -0.211189 0.73000002 4284771443
0.16191156 -0.20926909 0.73000002 4283261551
0.16213337 -0.20827407 0.73100001 4282341483
0.16108282 -0.21770847 0.73400003 4283391326
0.16257696 -0.21719767 0.73300004 4284377201
0.16075832 -0.2147737 0.73350006 4283000171
0.15893792 -0.21105924 0.73400003 4280896361
0.16075832 -0.21155851 0.7335 4282145389
0.16108282 -0.20869984 0.73400003 4280898153
0.16333047 -0.20770031 0.7335 4281095282
0.15808053 -0.21744139 0.73600006 4281549648
0.15980114 -0.21701126 0.73600006 4281682000
0.159371 -0.21421526 0.73600006 4280633431
0.16040336 -0.20815012 0.73600006 4280899437
0.1585101 -0.2167383 0.73800004 4281615947
0.15786313 -0.21479736 0.73800004 4281222219
0.1582403 -0.2119576 0.73825002 4279974735
0.1585101 -0.20897454 0.73800004 4279256673
0.15980406 -0.20768058 0.73800004 4280112505
0.15965913 -0.20775189 0.74133343 4280308338
0.15849432 -0.21067353 0.74400002 4280438113
0.15877837 -0.20843627 0.74533337 4280700529
0.15892039 -0.20535392 0.74600005 4281096058
0.15782367 -0.21021327 0.74700004 4280568690
0.15737832 -0.20852745 0.74800003 4280502883
0.15561973 -0.20617971 0.74900001 4280569706
0.15462923 -0.20858583 0.75057143 4281550934
0.15461463 -0.2052772 0.75050008 4281357419
0.15492453 -0.20370927 0.75200003 4282145112
0.15401456 -0.20491207 0.75400001 4283067510
0.15477769 -0.20240216 0.75450003 4284314244
0.15665857 -0.20160702 0.75400001 4281953171
0.15330006 -0.20240919 0.75700003 4286415752
0.1519728 -0.19975464 0.75700003 4286285461
0.15330006 -0.19975464 0.75700003 4286548632
0.15277582 -0.20548016 0.76100004 4285427839
0.15370509 -0.20560552 0.75900006 4285559173
0.15237433 -0.20227857 0.75900006 4286086786
0.16399454 -0.17415948 0.77300006 4289381068
0.14994419 -0.18143933 0.78099996 4288787393
0.1484182 -0.18420374 0.78500003 4287999159
0.13625768 -0.18144546 0.7930001 4286944161
0.13660571 -0.17866467 0.7930001 4287141287
0.13607621 -0.17794581 0.79600006 4287206563
0.13886751 -0.17515451 0.79600006 4287931319
0.13816267 -0.17743734 0.80000001 4287404210
0.10329062 -0.15635088 0.80700004 4286481040
0.11517823 -0.13935143 0.81100005 4286680227
0.10360008 -0.17862085 0.81500006 4286348925
0.11074492 -0.14575461 0.81500006 4286811031
0.11268015 -0.14548677 0.81349999 4286679454
0.11074492 -0.14361116 0.81500006 4286942866
0.11268015 -0.14263323 0.81349999 4287139741
0.11346346 -0.13986604 0.81400001 4286942865
0.11474953 -0.13898234 0.81300002 4286416799
0.10671926 -0.15112594 0.81700003 4286614675
0.10910672 -0.14921597 0.81700009 4286876056
0.11173292 -0.14181486 0.81700003 4286811276
0.10436279 -0.17201866 0.82100004 4286021512
0.10580227 -0.15330532 0.82100004 4286875533
0.10652201 -0.1511461 0.82100004 4286809999
0.10907165 -0.14790739 0.82033342 4286810263
0.10926686 -0.14521107 0.82000005 4286745236
0.11012073 -0.14250919 0.82100004 4286746003
0.11128845 -0.14144404 0.81900007 4286614675
0.11221114 -0.13954473 0.82050002 4286746007
0.10461701 -0.17820968 0.82300001 4286350726
0.10461701 -0.17604518 0.82300001 4285955713
0.10461701 -0.1738807 0.82300001 4286021764
0.10461701 -0.15656477 0.82300001 4286547074
0.10461701 -0.15440029 0.82300001 4286612615
0.10461701 -0.15223579 0.82300001 4286546824
0.107503 -0.14862831 0.82300001 4286546579
0.107503 -0.14646381 0.82300001 4286153875
0.108946 -0.14285633 0.82300001 4287007128
0.11038899 -0.13997035 0.82300001 4286878873
0.10367548 -0.15515071 0.82700002 4286743185
0.10367548 -0.15297571 0.82700002 4286874002
0.10572162 -0.15134247 0.82600003 4286612366
0.10640367 -0.14838488 0.82566673 4286547086
0.10697174 -0.14512485 0.82633334 4286941073
0.10736799 -0.14307755 0.82566673 4286809750
0.10861813 -0.1412047 0.82600003 4287073947
0.1039262 -0.1577062 0.82900006 4286546824
0.1039262 -0.1511654 0.82900006 4286612367
0.10537972 -0.15043864 0.82900006 4286742668
0.10537972 -0.14825836 0.82900006 4286416526
0.10537972 -0.14535134 0.82900006 4286940813
0.10586423 -0.14220206 0.82900006 4286678164
0.10296714 -0.15189478 0.83300006 4286348939
0.10357203 -0.14879489 0.83200008 4286284678
0.10357203 -0.14587733 0.83200002 4286546828
0.10385724 -0.1432599 0.83233339 4286481561
0.1013843 -0.15116143 0.83500004 4286284170
0.1012623 -0.14811137 0.83500004 4286218889
0.10175031 -0.1449393 0.83500004 4286284683
0.10175031 -0.14201124 0.83500004 4286350990
0.10175031 -0.13981518 0.83500004 4286218638
0.096915059 -0.15712014 0.83749998 4286086533
0.096915059 -0.15418419 0.83749998 4286349439
0.099792719 -0.1540917 0.83700001 4286283398
0.096915059 -0.15124647 0.83750004 4286479742
0.099548131 -0.15140121 0.83700007 4286480262
0.09697248 -0.14839862 0.838 4286217597
0.099548131 -0.14797693 0.83700007 4286349702
0.097824603 -0.14563362 0.83900005 4285495429
0.099851891 -0.14537282 0.83749998 4286153356
0.099911064 -0.14252146 0.83800006 4286218631
0.096583247 -0.14671806 0.84100002 4285887595
0.098057799 -0.14303167 0.84100002 4285757563
0.095334873 -0.16036952 0.84300005 4285691514
0.095485657 -0.1576612 0.84433335 4285560692
0.09556105 -0.15408294 0.84500003 4285427557
0.09556105 -0.15186058 0.84500003 4284966241
0.09704262 -0.14519353 0.84500003 4285691243
0.16775367 -0.1747144 0.79400003 4289051599
0.16984189 -0.17541046 0.79400003 4288919757
0.16695285 -0.17251793 0.79350007 4288854218
0.16984189 -0.17332226 0.79400003 4288787653
0.1726262 -0.17332226 0.79400003 4288786106
0.1747144 -0.17332226 0.79400003 4288522163
0.17026971 -0.17236319 0.79600006 4288853704
0.17236319 -0.17236319 0.79600006 4289115847
0.16901362 -0.16929276 0.79600006 4288591308
0.17209667 -0.1713971 0.79800004 4289050061
0.17511415 -0.17231146 0.79900002 4288916147
0.17209667 -0.16929837 0.79800004 4288655568
0.17533332 -0.16972266 0.80000001 4288522678
0.17209667 -0.16650003 0.79800004 4288458438
0.17463198 -0.16761866 0.80000001 4288720317
0.16635802 -0.15795167 0.79900002 4288852172
0.166216 -0.15148799 0.80000001 4288653749
0.16691732 -0.14868267 0.80000001 4288655813
0.17810273 -0.1710631 0.80300003 4287930283
0.17647476 -0.16803771 0.80200005 4288128180
0.17857204 -0.16871655 0.80300003 4287536811
0.18091857 -0.16824724 0.80300003 4286616992
0.17588168 -0.1660319 0.80250001 4288324790
0.17857204 -0.16636999 0.80300003 4287733418
0.18185718 -0.16636999 0.80300003 4286485149
0.17810273 -0.1633195 0.80300003 4287602608
0.1823265 -0.1633195 0.80300003 4286945444
0.1823265 -0.1612076 0.80300003 4286222752
0.16884643 -0.1575896 0.80250001 4288654786
0.1710631 -0.15768778 0.80300003 4288457659
0.16663153 -0.15467907 0.80200005 4288523966
0.16824724 -0.15487194 0.80300003 4288655295
0.16814247 -0.15196183 0.80250001 4288917178
0.16965516 -0.14924023 0.80300003 4288326852
0.1710631 -0.14924023 0.80300003 4287931837
0.16817741 -0.14565934 0.80266666 4288523201
0.16824724 -0.14220059 0.80300003 4288916674
0.17995776 -0.17007773 0.80500007 4287405225
0.18136919 -0.17007773 0.80500007 4286485408
0.17007773 -0.15455195 0.80500007 4288589762
0.17184202 -0.15490481 0.80500007 4288457920
0.17007773 -0.15172909 0.80500007 4288653761
0.17148916 -0.15172909 0.80500007 4288522175
0.17007773 -0.14749479 0.80500007 4288458178
0.17148916 -0.14749479 0.80500007 4288326593
0.17007773 -0.14537764 0.80500007 4288720574
0.17148916 -0.14537764 0.80500007 4288523196
0.17007773 -0.14255476 0.80500007 4288720317
0.17148916 -0.14255476 0.80500007 4288457402
0.17148916 -0.13690904 0.80500007 4288261052
0.17148916 -0.1347919 0.80500007 4288326845
0.17148916 -0.13196903 0.80500007 4288260281
0.17943349 -0.17517816 0.80900002 4287667125
0.18085194 -0.17517816 0.80900002 4287338416
0.1789899 -0.17333016 0.80700004 4287536298
0.18156117 -0.17305049 0.80900002 4286813344
0.18346179 -0.17000408 0.80800003 4285959063
0.17333016 -0.15422845 0.80700004 4287997876
0.17588738 -0.15461069 0.80900002 4288194742
0.17801505 -0.15390146 0.80900002 4287931308
0.17333016 -0.15139857 0.80700004 4287932086
0.17588738 -0.15177378 0.80900002 4287998134
0.17872426 -0.15177378 0.80900002 4287471534
0.17375971 -0.1489369 0.80900002 4288260794
0.17565097 -0.14870049 0.80900002 4288194743
0.17801505 -0.14822768 0.80900002 4287799469
0.17375971 -0.1461 0.80900002 4288195259
0.17588738 -0.1461 0.80900002 4288326589
0.17801505 -0.1461 0.80900002 4288063416
0.17375971 -0.14326312 0.80900002 4288523967
0.17588739 -0.14255388 0.80900002 4288260793
0.1726227 -0.14007905 0.80700004 4288392124
0.17588738 -0.13900776 0.80900002 4288129470
0.17333014 -0.13654171 0.80699998 4288129724
0.17565097 -0.13640727 0.80900002 4288129468
0.17050028 -0.13371183 0.80700004 4288523708
0.17283747 -0.13387752 0.80800003 4288392121
0.17517816 -0.1340432 0.80900002 4288457913
0.18414296 -0.17418928 0.81100005 4286288027
0.18414296 -0.17276734 0.81100005 4286156441
0.1798771 -0.15712585 0.81100005 4287996862
0.17940313 -0.15522991 0.81100005 4287865524
0.18129905 -0.15428194 0.81100005 4286878626
0.17845516 -0.15001608 0.81100005 4287931572
0.18129905 -0.15143804 0.81100005 4287405743
0.1798771 -0.14788315 0.81100005 4287602359
0.18129905 -0.14788315 0.81100005 4287602615
0.17940313 -0.14480226 0.81100005 4287603380
0.17892914 -0.14243233 0.81100005 4287932084
0.17845516 -0.13935143 0.81100005 4287800763
0.17703319 -0.13579655 0.81100005 4288588729
0.18174614 -0.1568006 0.81300002 4287404465
0.18388434 -0.15751332 0.81300002 4287601576
0.18648015 -0.15647186 0.81500006 4287074727
0.18399787 -0.15404391 0.81349999 4287274158
0.18648015 -0.15432841 0.81500006 4287077290
0.1841114 -0.15128462 0.81400001 4287209126
0.18648015 -0.15147048 0.81500006 4287339692
0.1841114 -0.14843018 0.81400001 4287077022
0.18648015 -0.14861253 0.81500006 4287405226
0.18174614 -0.14539692 0.81300002 4287603639
0.1841114 -0.14557576 0.81400001 4287602605
0.181271 -0.14230841 0.81300002 4287603381
0.1841114 -0.14272133 0.81400001 4287470765
0.18103342 -0.13969508 0.81300002 4287932098
0.18433671 -0.14003874 0.81500006 4288128434
0.17871231 -0.13635354 0.81433338 4288391350
0.18648015 -0.13789529 0.81500006 4286743658
0.18837024 -0.15470713 0.81700003 4286682789
0.18980271 -0.15399089 0.81700003 4286483358
0.18837024 -0.15184218 0.81700003 4287273642
0.18980271 -0.15184218 0.81700003 4287207330
0.18837024 -0.14897722 0.81700003 4287273640
0.18693778 -0.14611229 0.81700003 4287600807
0.18693776 -0.1425311 0.81700009 4287995302
0.18693778 -0.13966614 0.81700003 4287075730
0.19217147 -0.15330532 0.82100004 4287404709
0.19098535 -0.15005992 0.81900007 4287733161
0.19297391 -0.15126388 0.82033342 4287140517
0.18883137 -0.14718796 0.81900007 4287601321
0.19098535 -0.14790595 0.81900007 4287074204
0.18883137 -0.14503399 0.81900007 4288061098
0.19098535 -0.14503399 0.81900007 4287136916
0.18883137 -0.14216202 0.81900007 4286416014
0.19049966 -0.14233473 0.82000005 4285757058
0.18883137 -0.14000806 0.81900007 4285167733
0.19026735 -0.14000806 0.81900007 4284703589
0.17223826 -0.12736872 0.82550007 4290297300
