# .PCD v0.7 - Point Cloud Data file format
VERSION 0.7
FIELDS x y z rgba
SIZE 4 4 4 4
TYPE F F F U
COUNT 1 1 1 1
WIDTH 1072
HEIGHT 1
VIEWPOINT 0 0 0 1 0 0 0
POINTS 1072
DATA ascii
0.21054904 -0.19326994 0.73000002 4284381328
0.20955576 -0.19161215 0.73100001 4282346371
0.21054904 -0.19135003 0.73000002 4283060574
0.16923349 -0.20591147 0.73400003 4286223788
0.17040429 -0.20319861 0.7335 4286354095
0.17157331 -0.20113276 0.73300004 4285308087
0.17245086 -0.2001202 0.73400003 4284455865
0.17542891 -0.19899076 0.73300004 4286033363
0.17799929 -0.19856237 0.73300004 4289448401
0.17888558 -0.19754632 0.73400003 4287414998
0.18133543 -0.19741175 0.7335 4292668915
0.18455148 -0.19676827 0.7335 4289317870
0.20306054 -0.19599199 0.73300004 4284258493
0.20498833 -0.19599199 0.73300004 4283930559
0.18789421 -0.19497243 0.73400003 4283862448
0.19059581 -0.19445491 0.73366666 4282077274
0.19663459 -0.192779 0.73300004 4282929491
0.19929557 -0.19350898 0.73333341 4282540896
0.20255625 -0.19371375 0.7335 4284124838
0.20577107 -0.19355296 0.7335 4283930300
0.20807281 -0.19316456 0.73300004 4284126390
0.20655495 -0.19111158 0.73400003 4284323007
0.20834291 -0.19098139 0.7335 4283333524
0.21141429 -0.19085121 0.73300004 4283129188
0.17098507 -0.20195594 0.73600006 4283597469
0.17098507 -0.2006655 0.73600006 4281957789
0.17292075 -0.19937505 0.73600006 4283469241
0.17528659 -0.19851476 0.73600006 4283207091
0.17743735 -0.19808461 0.73600006 4284722630
0.17872779 -0.19679414 0.73600006 4284456905
0.1813087 -0.19679414 0.73600006 4287216075
0.18453483 -0.19614892 0.73600006 4285047016
0.18711574 -0.19421323 0.73600006 4283861688
0.20324641 -0.19292279 0.73600006 4284650161
0.19963315 -0.19111614 0.73600006 4282542447
0.20195594 -0.19163232 0.73600006 4284716227
0.20518209 -0.19163232 0.73600006 4283732680
0.20840822 -0.19034187 0.73600006 4283791756
0.21163435 -0.19034187 0.73600006 4283457375
0.1661327 -0.2112264 0.7383334 4282075729
0.16709024 -0.20853905 0.73874998 4280898143
0.16779487 -0.20666628 0.73900002 4281752426
0.1690906 -0.20537056 0.73900002 4281753466
0.17023258 -0.20259564 0.7383334 4282481568
0.17232987 -0.19953984 0.73900002 4282942895
0.17403762 -0.19862285 0.73800004 4282944180
0.17297773 -0.19759628 0.73900002 4283863737
0.17548966 -0.1968593 0.73866659 4283603133
0.17874773 -0.19623417 0.73874998 4284392390
0.18127714 -0.19551989 0.7385 4284260799
0.18392882 -0.19558631 0.73875004 4284392396
0.18580906 -0.19422507 0.7385 4284193486
0.18723057 -0.19370915 0.73900002 4285568692
0.20379871 -0.19215305 0.73800004 4284584898
0.20250475 -0.19085909 0.73800004 4284258243
0.2055551 -0.19066447 0.7385 4283733186
0.20832756 -0.18956514 0.73800004 4283659641
0.20666628 -0.18852629 0.73900002 4283335846
0.16435133 -0.21112326 0.74100006 4282664783
0.16442527 -0.20861804 0.74133343 4281615190
0.16603124 -0.20826992 0.74125004 4281484889
0.16457313 -0.20620428 0.74200004 4280699231
0.17084743 -0.2007295 0.74100006 4283204247
0.17161232 -0.1989148 0.74150008 4282942370
0.17291242 -0.1963146 0.74150002 4283601592
0.17539471 -0.19553262 0.74100006 4283799754
0.17799315 -0.19553262 0.74100006 4283801542
0.17367995 -0.19384503 0.74200004 4283800511
0.17557201 -0.1937795 0.74175006 4283604169
0.17864275 -0.19358379 0.74100012 4284195275
0.18189082 -0.19358379 0.74100006 4284391880
0.18448924 -0.19358379 0.74100006 4284652999
0.18708768 -0.19293417 0.74100006 4284319391
0.1762819 -0.19189358 0.74200004 4283670733
0.17845018 -0.19145991 0.74200004 4284195535
0.18148577 -0.19137318 0.74200004 4284720077
0.18443811 -0.19137371 0.74166673 4285111747
0.18643808 -0.19163495 0.74100006 4283595168
0.20332794 -0.19033574 0.74100006 4283995837
0.16371223 -0.20806456 0.74400002 4282140226
0.16762568 -0.20023768 0.74400002 4282152342
0.16937661 -0.19910304 0.74525011 4282548382
0.16971128 -0.19652501 0.74600005 4283206057
0.17186522 -0.19599812 0.74400002 4283272880
0.17242192 -0.19332252 0.745 4283931840
0.17480032 -0.1924108 0.74400002 4283604678
0.17330824 -0.19162005 0.74600005 4283473090
0.17576583 -0.19144881 0.74533337 4283604939
0.17865591 -0.19040672 0.74466676 4284457425
0.18170319 -0.19040674 0.74466664 4284784846
0.16678232 -0.20223999 0.74900001 4281624970
0.16743895 -0.19961348 0.74900001 4282219162
0.16743895 -0.19764362 0.74900001 4282155443
0.16903858 -0.19571787 0.74833339 4283074475
0.16986981 -0.19348121 0.7481429 4283339442
0.17049325 -0.19147715 0.74800003 4283669182
0.17241457 -0.19077055 0.74779999 4283603905
0.17539313 -0.19008535 0.7482 4284064714
0.17790635 -0.189694 0.74700004 4284327121
0.1746618 -0.18845089 0.74900001 4284589522
0.17860153 -0.18845089 0.74900001 4284130257
0.16569132 -0.2022562 0.75150007 4281492856
0.16591005 -0.19948725 0.75100005 4281232009
0.16696222 -0.19643365 0.75040001 4281891752
0.16722679 -0.19356275 0.75100005 4282681768
0.1667911 -0.19184272 0.75200003 4284584375
0.16929886 -0.19037893 0.7514286 4285046465
0.17160751 -0.19001751 0.75000006 4284589254
0.17267248 -0.18794963 0.75120008 4285967555
0.17570795 -0.18733375 0.75066668 4285574103
0.16083765 -0.20452195 0.75500005 4283653714
0.1634306 -0.20478517 0.75475001 4281488471
0.16017577 -0.20253631 0.75500005 4284050546
0.16341241 -0.20244688 0.75466675 4281161327
0.1603964 -0.20010941 0.75500005 4285167223
0.16341241 -0.19980054 0.75466675 4281951615
0.16083765 -0.19657935 0.75500005 4286221972
0.16326512 -0.1966795 0.75475007 4284253846
0.16591266 -0.19697997 0.75400001 4282153876
0.16423579 -0.19361535 0.75480008 4286224039
0.16591266 -0.19367494 0.75400001 4284844704
0.16480896 -0.1912843 0.75500005 4287800764
0.1666837 -0.19049616 0.75450003 4287473603
0.16855669 -0.1897089 0.75400001 4287013827
0.16701524 -0.18819551 0.75500005 4288787652
0.16927359 -0.18778792 0.75424999 4288591304
0.17164139 -0.18750556 0.75400001 4288592846
0.17269391 -0.18559669 0.75475007 4289052884
0.15993644 -0.199091 0.75700003 4285498240
0.15993644 -0.19643645 0.75700003 4286419098
0.1612637 -0.19444555 0.75700003 4287733422
0.16259098 -0.19378191 0.75700003 4287404451
0.16391826 -0.191791 0.75700003 4288654774
0.16524553 -0.18980008 0.75700003 4288261817
0.16657281 -0.18736674 0.75700003 4288985540
0.16989098 -0.18648191 0.75700003 4289775314
0.17055462 -0.18515463 0.75700003 4288264145
0.1718819 -0.18515463 0.75700003 4288856283
0.1595713 -0.19621423 0.76000011 4286878103
0.16138703 -0.19335496 0.75966674 4287733157
0.16302055 -0.19229771 0.75900006 4287997101
0.16323416 -0.190552 0.76000005 4288326590
0.16389723 -0.18790175 0.76060009 4288721863
0.16627124 -0.18669407 0.75966674 4288986061
0.16683125 -0.18443401 0.76060003 4289577427
0.16930597 -0.18463564 0.76033336 4289512413
0.17225079 -0.1839736 0.75980008 4290038753
0.16020031 -0.19331026 0.76300001 4287930791
0.16062602 -0.19031768 0.7628001 4288193971
0.16141537 -0.18820632 0.76400006 4288590012
0.16310339 -0.1871679 0.76250005 4288722630
0.16409446 -0.18485746 0.76400006 4289642710
0.16500093 -0.18437351 0.76200002 4289708502
0.16655439 -0.18227391 0.76300001 4290168794
0.16936429 -0.18166287 0.76240003 4290564061
0.16022626 -0.18789317 0.76600003 4288195512
0.16261509 -0.18613429 0.7665 4289314507
0.16303948 -0.18400794 0.76660001 4289313749
0.16406642 -0.18222131 0.76700002 4289642712
0.16645972 -0.18124557 0.76666665 4290037466
0.16922471 -0.18064068 0.76600003 4290498011
0.16944563 -0.17885928 0.76700002 4290497498
0.15775266 -0.19011219 0.76900005 4287667374
0.15842682 -0.18741556 0.76900005 4288457654
0.1604493 -0.1867414 0.76900005 4289181886
0.15775266 -0.18471894 0.76900005 4288720836
0.1604493 -0.18471894 0.76900005 4288984509
0.16314591 -0.1820223 0.76900005 4289774293
0.16516839 -0.18134815 0.76900005 4290365662
0.16685379 -0.17966275 0.76900005 4290431196
0.15807383 -0.19370329 0.77166671 4287667367
0.15518491 -0.19042341 0.77300006 4287798181
0.15654024 -0.19042341 0.77300006 4287797924
0.15518491 -0.18771274 0.77300006 4287863968
0.15730761 -0.18800145 0.77233338 4288259758
0.1573516 -0.18374804 0.77200001 4289048254
0.16086659 -0.18317162 0.77100003 4289377729
0.15789555 -0.18161377 0.77300006 4289181383
0.1604671 -0.18145657 0.77233338 4289445326
0.16348577 -0.18107462 0.77166671 4289840595
0.1640784 -0.17897414 0.77233338 4290366416
0.16648953 -0.17867079 0.77200007 4290431969
0.16873819 -0.17822546 0.77300006 4290630115
0.15442657 -0.19524418 0.77600002 4286613397
0.15125188 -0.19297653 0.77600002 4286679175
0.15399456 -0.19314019 0.77520007 4287141027
0.15674274 -0.19406244 0.77400005 4287404194
0.14898424 -0.19116242 0.77600002 4286614925
0.15125188 -0.19070889 0.77600002 4287206293
0.15354729 -0.19023666 0.77500004 4287336863
0.15170541 -0.18844126 0.77600002 4287338403
0.15422671 -0.18751901 0.7750001 4287863206
0.15674274 -0.18659849 0.77400005 4288718771
0.15490612 -0.18480134 0.77500004 4288390576
0.15544702 -0.18197845 0.77600002 4288983225
0.15674274 -0.18184873 0.77400005 4289509309
0.15578717 -0.17823686 0.77600002 4289181123
0.15742128 -0.17845602 0.77400011 4289312707
0.16013545 -0.17845602 0.77400011 4289576652
0.16314562 -0.17807992 0.77433342 4290300888
0.1662423 -0.17709894 0.77400005 4290300378
0.15578717 -0.17551568 0.77600002 4289444291
0.15782806 -0.17551568 0.77600002 4289970638
0.16054922 -0.17551568 0.77600002 4289773779
0.16304363 -0.17574245 0.77600002 4290038234
0.16599157 -0.17619598 0.77600002 4290235353
0.16054922 -0.1734748 0.77600002 4290036438
0.1625901 -0.1734748 0.77600002 4290431966
0.15073232 -0.19438331 0.77800006 4286415488
0.15073232 -0.19029102 0.77800006 4287338655
0.15164173 -0.18756284 0.77800006 4287535784
0.1534605 -0.1868808 0.77800006 4287929511
0.15209642 -0.18483464 0.77800006 4288060590
0.1534605 -0.18483464 0.77800006 4287733161
0.1548246 -0.18210647 0.77800006 4288915384
0.1548246 -0.17869623 0.77800006 4289114305
0.1548246 -0.17665009 0.77800006 4289377733
0.16437325 -0.175286 0.77800006 4290367196
0.16641939 -0.175286 0.77800006 4290432986
0.15846218 -0.1734672 0.77800006 4289971161
0.16096303 -0.17255782 0.77800006 4290037213
0.16391855 -0.17301251 0.77800006 4290432478
0.16619204 -0.1734672 0.77800006 4290169816
0.1497522 -0.19009641 0.78000003 4286615961
0.14994419 -0.1876014 0.78100002 4287206553
0.1511198 -0.18736121 0.78000003 4287272612
0.14994419 -0.18554737 0.78100002 4287666084
0.15164025 -0.18447667 0.78033334 4287797166
0.153855 -0.1839422 0.78000003 4287996076
0.1526829 -0.18143933 0.78099996 4288850102
0.15431087 -0.18166287 0.78000003 4288718523
0.1526829 -0.17801593 0.78100002 4288785850
0.153855 -0.1784718 0.78000003 4288917183
0.15489882 -0.17543034 0.78066665 4289312973
0.15659021 -0.17436901 0.78000003 4289051601
0.1554216 -0.17253852 0.78100002 4289510349
0.15732419 -0.17237261 0.78025001 4289642719
0.16000919 -0.17163381 0.78000003 4290234589
0.1634282 -0.17163379 0.78000003 4290366429
0.15747562 -0.1704845 0.78100002 4289774802
0.1603058 -0.16988252 0.78033334 4290300379
0.16323814 -0.16980577 0.78039998 4290497754
0.16623382 -0.16988249 0.78033334 4289905883
0.14795941 -0.18925041 0.78500003 4287008659
0.14855695 -0.18731159 0.78380001 4287338139
0.14875017 -0.1845053 0.78433341 4287862951
0.15078579 -0.18373443 0.78300005 4287796647
0.14933577 -0.18236858 0.78500003 4288324267
0.15120658 -0.18144897 0.78400004 4288587697
0.15120658 -0.17869973 0.78400004 4288588470
0.15153797 -0.17521147 0.78500003 4288852674
0.15353151 -0.17549728 0.78300005 4288655299
0.15140033 -0.17204583 0.78500003 4289050311
0.15395641 -0.17251281 0.78399998 4289247432
0.15140033 -0.16998129 0.78500003 4289181644
0.15581961 -0.17092107 0.78300005 4289708498
0.15818091 -0.16918483 0.78450006 4290037969
0.16066933 -0.16891934 0.78433341 4290432476
0.16378763 -0.16860493 0.78500003 4290498266
0.16103488 -0.16722855 0.78500003 4290367709
0.1483364 -0.18421309 0.78700006 4287928739
0.14971626 -0.18145335 0.78700006 4288062124
0.15109614 -0.17731373 0.78700006 4288984511
0.15178607 -0.1690345 0.78700006 4289510859
0.15454581 -0.16972443 0.78700006 4289379534
0.15661563 -0.16972443 0.78700006 4289774295
0.15247601 -0.16765462 0.78700006 4289707730
0.15454581 -0.16765462 0.78700006 4289511123
0.15753554 -0.16719466 0.787 4289972696
0.15983532 -0.1667347 0.787 4290367193
0.16379097 -0.1668267 0.78700006 4290498259
0.16282505 -0.16489488 0.78700006 4290168270
0.14613156 -0.1890707 0.79000002 4287272862
0.14566985 -0.18676214 0.79000002 4287206046
0.1475167 -0.186993 0.79000002 4287338139
0.145439 -0.18422273 0.79000002 4287272345
0.14791559 -0.18391442 0.78966665 4287797411
0.14336129 -0.18075989 0.79000002 4287535779
0.145439 -0.18145245 0.79000002 4287470250
0.14811502 -0.18133761 0.7895 4287865003
0.15009673 -0.1805311 0.78900003 4288324782
0.14336129 -0.17937475 0.79000002 4287996076
0.145439 -0.17868219 0.79000002 4287865006
0.14816214 -0.17862543 0.78974998 4288062640
0.15009673 -0.17845602 0.78900003 4287997359
0.14566986 -0.1761428 0.79000002 4288192684
0.14820927 -0.17591193 0.79000002 4288588981
0.15009673 -0.17568925 0.78900003 4288392630
0.145439 -0.17244911 0.79000002 4288587700
0.14799535 -0.17263845 0.78960001 4288589237
0.15009673 -0.17292249 0.78900003 4288721604
0.14336129 -0.16898626 0.79000002 4288457398
0.145439 -0.16898626 0.79000002 4288916924
0.1482347 -0.16927293 0.78939998 4289114051
0.15044257 -0.1691182 0.78900003 4288984006
0.14844012 -0.16644685 0.79000002 4289378758
0.1515118 -0.16604051 0.78916669 4289510865
0.15493855 -0.1660056 0.78900003 4289707988
0.15747477 -0.16577505 0.78900003 4289840343
0.16047207 -0.16531391 0.78900003 4290366937
0.1660056 -0.16531391 0.78900003 4290562008
0.15097953 -0.16344574 0.79000002 4289576140
0.15444236 -0.16344574 0.79000002 4289905106
0.15780526 -0.16334185 0.7895 4290234328
0.16057377 -0.16334185 0.7895 4290432216
0.1633423 -0.16334185 0.7895 4290036433
0.16616361 -0.1633938 0.78975004 4290365146
0.15097953 -0.16136803 0.79000002 4289904589
0.15444236 -0.16136803 0.79000002 4289839828
0.15790519 -0.16136803 0.79000002 4290299867
0.16344574 -0.16136803 0.79000002 4290496984
0.16552342 -0.16136803 0.79000002 4290233561
0.14251415 -0.18445855 0.79300004 4287272098
0.14025615 -0.18105857 0.79333335 4287535781
0.14279848 -0.18214329 0.79200006 4287141281
0.13956115 -0.1785216 0.79360008 4287666854
0.14248864 -0.17823562 0.79285723 4287732648
0.13991074 -0.17541048 0.79400003 4288192174
0.14251415 -0.17518985 0.79300004 4288192942
0.14511289 -0.17566296 0.79200006 4288456366
0.13712645 -0.17193012 0.79400003 4288126631
0.13921466 -0.1726262 0.79400003 4287995819
0.14245425 -0.1723363 0.79266673 4287996078
0.13654727 -0.16946785 0.79333335 4288061866
0.13967521 -0.16955727 0.79266673 4288259248
0.14233561 -0.16941407 0.79200006 4288260019
0.13654727 -0.16714877 0.79333335 4288128438
0.13942087 -0.16694328 0.79280007 4288391609
0.14268452 -0.16658174 0.79240006 4288588731
0.14580721 -0.16663679 0.79200006 4289509574
0.14789017 -0.16594248 0.79200006 4288524223
0.13712645 -0.16496938 0.79400003 4288588731
0.13921466 -0.16496938 0.79400003 4288720316
0.14234698 -0.16392528 0.79400003 4288917180
0.1453975 -0.16348489 0.79355568 4289114565
0.14852032 -0.16352464 0.79240006 4289246666
0.1461754 -0.16009685 0.79400003 4288984265
0.14894813 -0.16035178 0.79320008 4289247690
0.15136176 -0.16038792 0.79200006 4289970636
0.15450083 -0.16005887 0.79266673 4289314261
0.15761064 -0.16038792 0.79200006 4290299866
0.16102438 -0.16074595 0.79240006 4290562777
0.16369015 -0.15979564 0.79320002 4290299611
0.1489597 -0.15731257 0.79400003 4289182921
0.15161657 -0.15787481 0.79333347 4289707721
0.15431157 -0.1576499 0.79360008 4289839315
0.15734559 -0.15827194 0.79300004 4290233814
0.16009685 -0.15800865 0.79400003 4290037208
0.16357724 -0.15800865 0.79399997 4290299866
0.16636153 -0.15800865 0.79400003 4289904078
0.14965576 -0.15522435 0.79400003 4289379276
0.15174398 -0.15452828 0.79400003 4289511371
0.15452828 -0.15452828 0.79400003 4289707982
0.13886751 -0.18073711 0.79600006 4287338151
0.13747185 -0.17864364 0.79600006 4287337888
0.13747185 -0.17585233 0.79600006 4287798690
0.13886751 -0.17585233 0.79600006 4287995812
0.13654143 -0.17329364 0.79600006 4287930541
0.13607621 -0.17096755 0.79600006 4288061872
0.13700664 -0.16305883 0.79600006 4288457913
0.13956535 -0.16329145 0.79600006 4288523197
0.14165881 -0.16329145 0.79600006 4288983235
0.13700664 -0.16073275 0.79600006 4288260538
0.13956535 -0.16050014 0.79600006 4288392126
0.14235663 -0.16050014 0.79600006 4289312967
0.14445013 -0.16050014 0.79600006 4288917950
0.14258926 -0.15794145 0.79600006 4288985284
0.14514795 -0.15770884 0.79600006 4288590016
0.14724143 -0.15770884 0.79600006 4289247693
0.15840666 -0.15701102 0.79600006 4290300117
0.16050014 -0.15701102 0.79600006 4290299865
0.16329145 -0.15701102 0.79600006 4289904593
0.16608274 -0.15701102 0.79600006 4289772756
0.14584579 -0.15491752 0.79600006 4288655813
0.14793926 -0.15491752 0.79600006 4289247948
0.15003274 -0.1542197 0.79600006 4289445323
0.15770884 -0.15491752 0.79600006 4289905360
0.16050014 -0.15491752 0.79600006 4289971420
0.14584579 -0.15142839 0.79600006 4288589500
0.14793925 -0.15142839 0.79600006 4289050055
0.1514284 -0.15142839 0.79600006 4289510093
0.15491752 -0.1514284 0.79600006 4289903820
0.15770884 -0.15212622 0.79600006 4289903821
0.1598023 -0.15212622 0.79600006 4289708498
0.13398272 -0.13677403 0.79600006 4288258750
0.13607621 -0.13677403 0.79600006 4287732919
0.13421533 -0.13421533 0.79600006 4288521919
0.13607621 -0.13398272 0.79600006 4288390583
0.13623838 -0.17861557 0.79900002 4287601322
0.13395466 -0.17463198 0.80000001 4287469734
0.13605866 -0.17533332 0.80000001 4287405227
0.13395466 -0.172528 0.80000001 4287863982
0.13518813 -0.17231321 0.79900002 4287930284
0.13395466 -0.16972266 0.80000001 4287799213
0.13501894 -0.16929837 0.79800004 4288062385
0.13114934 -0.16691732 0.80000001 4288062131
0.13325334 -0.16691734 0.80000001 4287800242
0.13580312 -0.1666048 0.79850006 4288325815
0.12273332 -0.162008 0.80000001 4288128182
0.124136 -0.162008 0.80000001 4288193208
0.12764266 -0.162008 0.80000001 4288062135
0.1304632 -0.16313714 0.79866672 4288390585
0.13312709 -0.16336298 0.79840004 4288456631
0.13548534 -0.16393492 0.79800004 4288522933
0.12273332 -0.159904 0.80000001 4287996596
0.12483733 -0.159904 0.80000001 4288456374
0.12764266 -0.159904 0.80000001 4288192950
0.13035508 -0.16067021 0.79800004 4288127672
0.13308764 -0.1604037 0.79900002 4287997373
0.13548534 -0.16067021 0.79800004 4288326072
0.12226578 -0.15686488 0.80000001 4287996596
0.12475887 -0.1570009 0.79949999 4288325814
0.12748311 -0.15690316 0.79900002 4288128440
0.13017595 -0.15747124 0.79833335 4288260015
0.13278028 -0.15712567 0.79800004 4288260804
0.1364181 -0.1574055 0.79799998 4288720068
0.139916 -0.1574055 0.79800004 4288655550
0.14248113 -0.15647273 0.79800004 4288918719
0.14481306 -0.15600634 0.79800004 4288787648
0.16370171 -0.15600634 0.79800004 4290298068
0.16650003 -0.15600634 0.79800004 4289837778
0.122032 -0.15429333 0.80000001 4287865267
0.12468041 -0.15410046 0.79900002 4288456889
0.12732357 -0.1539076 0.79800004 4288390577
0.13012189 -0.1539076 0.79800004 4287931063
0.13292021 -0.1539076 0.79800004 4288589504
0.1364181 -0.1539076 0.79800004 4288588482
0.139916 -0.1539076 0.79800004 4288457658
0.14271432 -0.1539076 0.79800004 4288722109
0.14481306 -0.1539076 0.79800004 4288656834
0.16160299 -0.15320802 0.79800004 4289708759
0.16370171 -0.1539076 0.79800004 4289840086
0.16650003 -0.1539076 0.79800004 4289116625
0.12187859 -0.15129863 0.79900002 4287798703
0.12452525 -0.15110928 0.79800004 4287995565
0.12732357 -0.15110928 0.79800004 4288192941
0.13012189 -0.15110928 0.79800004 4288062901
0.13292021 -0.15110928 0.79800004 4287997104
0.1364181 -0.15110928 0.79800004 4288456637
0.139916 -0.15110928 0.79800004 4288719549
0.14271432 -0.15110928 0.79800004 4288983231
0.14481306 -0.15110928 0.79800004 4288851903
0.15810508 -0.1504097 0.79800004 4289510349
0.16113658 -0.15087609 0.79800004 4289510602
0.16390686 -0.15129776 0.79900002 4289707722
0.16650003 -0.15110928 0.79800004 4288984008
0.12187859 -0.14849682 0.79900002 4287733675
0.12452524 -0.14831096 0.79800004 4287995564
0.12732357 -0.14831096 0.79800004 4288259251
0.13012189 -0.14831096 0.79800004 4287996851
0.13292021 -0.14831096 0.79800004 4288391863
0.1364181 -0.14831096 0.79800004 4288326078
0.139916 -0.14831096 0.79800004 4288720318
0.14271432 -0.14831096 0.79800004 4288786623
0.14551264 -0.14831096 0.79800004 4288655558
0.14831096 -0.14831096 0.79800004 4288524232
0.15110928 -0.14831096 0.79800004 4289050058
0.1539076 -0.14831096 0.79800004 4289246919
0.1574055 -0.14831096 0.79800004 4289510861
0.16020381 -0.14831096 0.79800004 4289510859
0.16334198 -0.14862101 0.79966664 4289115851
0.16650003 -0.14831096 0.79800004 4288983997
0.12226578 -0.1461111 0.80000001 4288324525
0.12468041 -0.14569499 0.79900002 4288193453
0.12732357 -0.14551264 0.79800004 4287865777
0.13012189 -0.14551264 0.79800004 4287799984
0.13292021 -0.14551264 0.79800004 4288325554
0.1364181 -0.14551264 0.79800004 4288522427
0.139916 -0.14551264 0.79800004 4288325047
0.14271432 -0.14551264 0.79800004 4288786622
0.14551264 -0.14551264 0.79800004 4288524733
0.14831096 -0.14551264 0.79800004 4288722120
0.15110928 -0.14551264 0.79800004 4289181902
0.1539076 -0.14551264 0.79800004 4289312713
0.15670592 -0.14551264 0.79800004 4289312196
0.15990399 -0.14587733 0.80000001 4289377981
0.16313714 -0.1456342 0.79866672 4289247682
0.16650003 -0.14551264 0.79800004 4288852151
0.122032 -0.14307201 0.80000001 4288062378
0.12452524 -0.14271432 0.79800004 4287800237
0.12732357 -0.14271432 0.79800004 4287800488
0.13012189 -0.14271432 0.79800004 4287800240
0.13292021 -0.14271432 0.79800004 4287865777
0.1364181 -0.14271432 0.79800004 4288522168
0.139916 -0.14271432 0.79800004 4288259765
0.14280418 -0.14280331 0.7985 4288457914
0.14560337 -0.14280331 0.79850006 4288458166
0.14831096 -0.14271432 0.79800004 4288392379
0.15110928 -0.14271432 0.79800004 4288918215
0.15410134 -0.14289317 0.79900002 4288457924
0.15709865 -0.14307201 0.80000001 4288852936
0.15990399 -0.14307201 0.80000001 4288787135
0.16341066 -0.14377333 0.80000001 4288589240
0.12238266 -0.139916 0.80000001 4287931058
0.12457154 -0.1397056 0.7992 4288391352
0.12732357 -0.139916 0.79800004 4287865782
0.13012189 -0.139916 0.79800004 4287930804
0.13292021 -0.139916 0.79800004 4287798708
0.1364181 -0.139916 0.79800004 4288061366
0.139916 -0.139916 0.79800004 4288128435
0.14301269 -0.13950659 0.79966664 4288128695
0.1460176 -0.13984588 0.80000001 4288654524
0.14855818 -0.13944845 0.79933333 4288456893
0.15136234 -0.13944845 0.79933333 4288851397
0.15429333 -0.13956533 0.80000001 4288588736
0.156748 -0.139916 0.80000001 4288655294
0.12495262 -0.13650358 0.79850006 4288128443
0.12732357 -0.1364181 0.79800004 4288457148
0.13012189 -0.1364181 0.79800004 4288587447
0.13222063 -0.1364181 0.79800004 4288455620
0.13781726 -0.1364181 0.79800004 4287865275
0.139916 -0.1364181 0.79800004 4287931322
0.14307201 -0.13605866 0.80000001 4288260280
0.14657865 -0.13605866 0.80000001 4288390586
0.14849682 -0.13588947 0.79900002 4288587966
0.15129864 -0.13588947 0.79900002 4288588479
0.15359199 -0.13676 0.80000001 4288325825
0.12522483 -0.13361979 0.79800004 4288520887
0.12732357 -0.13361979 0.79800004 4288587702
0.13028495 -0.13308589 0.79900002 4288849593
0.13292021 -0.13292021 0.79800004 4288784320
0.13676789 -0.13257042 0.79800004 4288456637
0.139916 -0.13292021 0.79800004 4288325563
0.14289403 -0.13308677 0.79900002 4288391353
0.14611112 -0.13301955 0.80000001 4287996087
0.14849682 -0.13308589 0.79900002 4288193721
0.15129863 -0.13308589 0.79900002 4288456889
0.130448 -0.130448 0.80000001 4288587195
0.13308589 -0.13028495 0.79900002 4288390847
0.1364181 -0.13012187 0.79800004 4288719290
0.139916 -0.13012189 0.79800004 4288523191
0.14271432 -0.13012189 0.79800004 4288457914
0.14569411 -0.13028495 0.79900002 4288655303
0.14831096 -0.13012189 0.79800004 4288129477
0.15110928 -0.13012189 0.79800004 4287801016
0.13395466 -0.128344 0.80000001 4288062657
0.13653089 -0.12813009 0.79866672 4288717750
0.139916 -0.12802315 0.79800004 4288784055
0.14289317 -0.12748224 0.79900002 4288654013
0.14569411 -0.12748311 0.79900002 4288457148
0.14831096 -0.12732357 0.79800004 4288918212
0.15129863 -0.12748224 0.79900002 4288524222
0.15429333 -0.12764266 0.80000001 4288457661
0.14587733 -0.12553866 0.80000001 4288457403
0.14868267 -0.12483733 0.80000001 4288588731
0.15148799 -0.12483733 0.80000001 4288852157
0.15359199 -0.12553866 0.80000001 4288918205
0.13164115 -0.18091857 0.80300003 4286945194
0.13371117 -0.18156621 0.80274999 4287009184
0.13117184 -0.17857204 0.80300003 4286814115
0.13362789 -0.1786399 0.80225003 4287272607
0.13569573 -0.17788093 0.80200005 4287075749
0.13093719 -0.17599083 0.80300003 4287142306
0.1333521 -0.17600603 0.80200005 4287338658
0.13569573 -0.17647476 0.80200005 4286682017
0.12882529 -0.17176706 0.80300003 4287601573
0.13093719 -0.17247103 0.80300003 4287798174
0.13296622 -0.17306758 0.80250001 4287666347
0.12776934 -0.16859922 0.80300003 4287995308
0.13070254 -0.16918586 0.80300003 4288061350
0.13296622 -0.17025262 0.80250001 4287733420
0.1189698 -0.16543138 0.80300003 4287667114
0.12108169 -0.16613534 0.80300003 4287798706
0.13015214 -0.16603234 0.80250001 4288192951
0.11544999 -0.16261554 0.80300003 4287536545
0.11850049 -0.16308485 0.80300003 4287667625
0.12104377 -0.16326886 0.80275005 4287996594
0.12479789 -0.16346765 0.80200005 4288390329
0.13007104 -0.16381919 0.80200005 4288654011
0.11544999 -0.16050364 0.80300003 4287076252
0.11826584 -0.16050364 0.80300003 4287799211
0.12100586 -0.1604037 0.80250001 4287733164
0.11544999 -0.15768778 0.80300003 4287732389
0.1182288 -0.15763891 0.80275005 4287930283
0.12069654 -0.15772577 0.80200005 4287930540
0.11544999 -0.15487193 0.80300003 4287600806
0.1182288 -0.1548235 0.80275005 4287798956
0.12022783 -0.15467907 0.80200005 4287996591
0.11544999 -0.15205607 0.80300003 4287338407
0.11819176 -0.1519614 0.80250001 4287470251
0.12022783 -0.15186673 0.80200005 4287799216
0.11826584 -0.14853626 0.80300003 4287404970
0.12022783 -0.14905438 0.80200005 4287470767
0.1189698 -0.14501645 0.80300003 4288390320
0.12057936 -0.14553893 0.80200005 4288258734
0.1189698 -0.14220059 0.80300003 4288259251
0.12022783 -0.1420235 0.80200005 4288259251
0.16030376 -0.14132042 0.80200005 4288918461
0.1631161 -0.1420235 0.80200005 4288720829
0.16592845 -0.1420235 0.80200005 4288456633
0.12108169 -0.13938475 0.80300003 4288258993
0.14553894 -0.13850807 0.80200005 4288193975
0.15829313 -0.13929752 0.80250001 4288720567
0.1604037 -0.13929752 0.80250001 4288851642
0.1633195 -0.13938475 0.80300003 4288653759
0.16613534 -0.13938475 0.80300003 4288390590
0.12460151 -0.13586491 0.80300003 4288390586
0.14553894 -0.13639882 0.80200005 4288193972
0.15491344 -0.13616444 0.80200005 4288325564
0.16050364 -0.13656887 0.80300003 4288522685
0.1633195 -0.13656887 0.80300003 4288259776
0.16613534 -0.13656887 0.80300003 4288062910
0.12460151 -0.13445699 0.80300003 4288586680
0.12804112 -0.13296622 0.80250001 4288784563
0.14553894 -0.13428955 0.80200005 4288127667
0.15467907 -0.13428955 0.80200005 4288522174
0.16050364 -0.13375303 0.80300003 4288522938
0.1633195 -0.13375303 0.80300003 4288127924
0.16613534 -0.13375303 0.80300003 4288128695
0.12808122 -0.13089621 0.80275005 4288455350
0.16050364 -0.13093719 0.80300003 4288127920
0.1633195 -0.13093719 0.80300003 4287995821
0.12882529 -0.12882529 0.80300003 4288784831
0.13093719 -0.12882529 0.80300003 4288390836
0.13367018 -0.12804112 0.80250001 4288062402
0.13652614 -0.12667373 0.80274999 4288456374
0.13929795 -0.12663406 0.80250001 4288521405
0.1419072 -0.12642585 0.80266666 4288521917
0.14413276 -0.12585253 0.80200005 4288720319
0.14975746 -0.12304017 0.80200005 4288587707
0.15186673 -0.12304017 0.80200005 4288324788
0.13027531 -0.18221605 0.80500013 4287009442
0.12491186 -0.1771349 0.80500007 4287270811
0.127029 -0.17784062 0.80500007 4286746008
0.12949902 -0.17889918 0.80500007 4286879654
0.12420614 -0.17501774 0.80500007 4287074465
0.127029 -0.17501774 0.80500007 4287206562
0.12914616 -0.17501774 0.80500007 4287272868
0.12420614 -0.17219487 0.80500007 4287666602
0.127029 -0.17219487 0.80500007 4287601574
0.11573754 -0.16866629 0.80500007 4287206308
0.12420614 -0.16937201 0.80500007 4287666605
0.127029 -0.17007773 0.80500007 4287732394
0.11291467 -0.16654915 0.80500007 4287270301
0.11573754 -0.16654915 0.80500007 4287600038
0.11832517 -0.16678439 0.80500007 4287403686
0.11362039 -0.16372627 0.80500007 4287667358
0.11573754 -0.16443199 0.80500007 4287798692
0.11785469 -0.16443199 0.80500007 4287667366
0.11291467 -0.16090341 0.80500007 4287470241
0.11291467 -0.15808055 0.80500007 4287797926
0.11032704 -0.15361099 0.80500007 4287139744
0.11291467 -0.15455197 0.80500013 4287797672
0.11032704 -0.1512586 0.80500007 4287272872
0.11291467 -0.15102337 0.80500007 4287404201
0.11573754 -0.15031765 0.80500007 4287602091
0.11362039 -0.14890622 0.80500007 4287603371
0.11573754 -0.14820051 0.80500007 4287537065
0.11597278 -0.14561288 0.80500007 4287799211
0.11785469 -0.14537764 0.80500007 4287930542
0.11644325 -0.14255476 0.80500007 4287996078
0.11785469 -0.14255476 0.80500007 4288193458
0.12208899 -0.13620332 0.80500007 4288324278
0.12350042 -0.13620332 0.80500007 4288258485
0.12208899 -0.1347919 0.80500007 4288389560
0.12420614 -0.13408618 0.80500007 4288520888
0.1263233 -0.13338046 0.80500007 4288586680
0.12679377 -0.1305576 0.80500007 4288521151
0.13126332 -0.12773472 0.80500007 4288456880
0.13385093 -0.12679376 0.80500007 4288391365
0.13690904 -0.12491186 0.80500007 4288456614
0.1397319 -0.12491186 0.80500007 4288784841
0.14255476 -0.12491186 0.80500007 4288587966
0.14608335 -0.12491186 0.80500007 4288786112
0.10922039 -0.17305049 0.80900002 4286090137
0.10907855 -0.16978808 0.80900002 4286679948
0.11248773 -0.16979282 0.8070001 4287205273
0.10925353 -0.16621827 0.80820006 4287073685
0.11107279 -0.16696292 0.80700004 4287270300
0.10915245 -0.16302098 0.80850005 4287271579
0.11169382 -0.16378956 0.80740005 4287403429
0.10927562 -0.16025671 0.80766672 4287075228
0.11107279 -0.15988822 0.80700004 4287205279
0.1090845 -0.15725297 0.80800003 4287404448
0.11107279 -0.15705836 0.80700004 4287007901
0.10889339 -0.1547191 0.8083334 4287337119
0.10965785 -0.15069111 0.80700004 4287273375
0.10965785 -0.14927617 0.80700004 4287469732
0.11220475 -0.1484272 0.80700004 4287799216
0.11269593 -0.14636388 0.80850005 4287732910
0.11475128 -0.14521107 0.80800003 4287997353
0.11492171 -0.14269592 0.80820006 4288127397
0.11702184 -0.14113544 0.80900002 4288324530
0.11827198 -0.13951862 0.80785722 4288389295
0.12154895 -0.1375978 0.80766672 4288455344
0.12380725 -0.13795665 0.80700004 4288324530
0.12239231 -0.13371183 0.80700004 4288784577
0.12438118 -0.13287783 0.80766672 4288258490
0.12466814 -0.13104413 0.80800003 4288061113
0.13654171 -0.12380725 0.80699998 4288654266
0.14007905 -0.12380725 0.80700004 4288653761
0.14326312 -0.12411407 0.80900002 4288325562
0.139717 -0.12269563 0.80900002 4288654778
0.1428376 -0.12212826 0.80900002 4288326073
0.14326312 -0.11985874 0.80900002 4288392124
0.1066465 -0.17205635 0.81100005 4286614164
0.10735748 -0.16921246 0.81100005 4286810260
0.10735748 -0.16636854 0.81100005 4287205267
0.10735748 -0.16352464 0.81100005 4287009686
0.10735748 -0.16068073 0.81100005 4287206810
0.10877943 -0.15996975 0.81100005 4287273114
0.11209732 -0.14480226 0.81100005 4287666090
0.1125713 -0.14243233 0.81100005 4287600551
0.11446725 -0.14148435 0.81100005 4287863716
0.11304529 -0.14006241 0.81100005 4287797673
0.11517823 -0.13935143 0.81100005 4287995564
0.12015506 -0.13864045 0.81100005 4288586673
0.11802213 -0.13650753 0.81100005 4288521906
0.12062904 -0.13627054 0.81100005 4288389809
0.12129263 -0.13352141 0.81100005 4288457400
0.12228799 -0.13153069 0.81100005 4288325297
0.12513189 -0.13010873 0.81100005 4288061369
0.13935143 -0.12157702 0.81100005 4288720323
0.14148435 -0.12086604 0.81100005 4288588995
0.14290632 -0.11873311 0.81100005 4288325811
0.14432827 -0.11873311 0.81100005 4288391605
0.10580754 -0.17000699 0.81366664 4286416014
0.10549615 -0.16659629 0.81420004 4286745229
0.11189861 -0.14183326 0.81300002 4287667114
0.10976042 -0.13969508 0.81300002 4287799204
0.11237376 -0.13945751 0.81300002 4287863465
0.11074492 -0.13789529 0.81500006 4287339157
0.11261134 -0.13684416 0.81300002 4287798698
0.11546225 -0.13684416 0.81300002 4288324784
0.11274984 -0.13415718 0.81400001 4287930286
0.11565161 -0.13349792 0.81433338 4288193451
0.11831318 -0.13399324 0.81300002 4288062904
0.11864836 -0.13148685 0.81366664 4287668140
0.12114078 -0.13027143 0.81380004 4288128429
0.12398084 -0.12969086 0.81433338 4288390325
0.14468418 -0.11760045 0.81300002 4288457652
0.11817905 -0.1310713 0.81700003 4287996078
0.12534142 -0.12820637 0.81700003 4288456631
0.12725139 -0.12725139 0.81700009 4287995834
0.17476174 -0.12390894 0.81700003 4288588221
0.13393626 -0.12247647 0.81700003 4288652212
0.13536873 -0.12104399 0.81700003 4288916669
0.11875766 -0.12883405 0.82100004 4287930287
0.12174533 -0.12807067 0.81980008 4288062392
0.12469093 -0.1275629 0.81900007 4288456377
0.12163662 -0.12595508 0.82100004 4287931319
0.12503001 -0.12503001 0.82060003 4288128180
0.12801029 -0.12441332 0.82033342 4288850105
0.13093983 -0.12446445 0.82066673 4288652223
0.13315251 -0.12379585 0.82100004 4288521140
0.17561737 -0.12307611 0.82100004 4288390581
0.17756006 -0.12364419 0.82000005 4287337636
0.12595508 -0.12163662 0.82100004 4287996080
0.12811431 -0.12163662 0.82100004 4288192179
0.13099329 -0.12163662 0.82100004 4288520640
0.13400288 -0.12105802 0.82033342 4288915895
0.13675123 -0.12019714 0.82100004 4288784829
0.17561737 -0.12163662 0.82100004 4287930021
0.11904694 -0.1277049 0.82300001 4287997103
0.12048995 -0.1277049 0.82300001 4287997103
0.12193294 -0.12409742 0.82300001 4288192433
0.12409742 -0.12409742 0.82300001 4288192689
0.1738807 -0.12337592 0.82300001 4288588220
0.12193294 -0.12193294 0.82300001 4287929007
0.12409742 -0.12193294 0.82300001 4287535018
0.1277049 -0.12048995 0.82300001 4287733676
0.1298694 -0.12048995 0.82300001 4287799215
0.1327554 -0.12048995 0.82300001 4288522424
0.1738807 -0.12121144 0.82300001 4288061879
0.17604518 -0.12048995 0.82300001 4287075738
0.17820968 -0.12121144 0.82300001 4284904042
0.1298694 -0.11904694 0.82300001 4288126632
0.1334769 -0.11808494 0.82300001 4288455340
0.13708436 -0.11904694 0.82300001 4288521660
0.17315918 -0.11832545 0.82300001 4286941080
0.17604518 -0.11904694 0.82300001 4284179050
0.1327554 -0.11543946 0.82300001 4288061094
0.14069185 -0.11616097 0.82300001 4289048769
0.14213483 -0.11616097 0.82300001 4288654774
0.1731592 -0.11616097 0.82300001 4284835438
0.10512548 -0.17037578 0.82700002 4286415236
0.10367548 -0.15297571 0.82700002 4286285715
0.10612388 -0.15167999 0.8267144 4287272348
0.10842058 -0.15092021 0.82633334 4287401635
0.10938666 -0.14874637 0.82633334 4287993512
0.11223963 -0.14916922 0.82600003 4288189605
0.10881567 -0.14597289 0.82566673 4287469738
0.11092551 -0.13412562 0.82700002 4287865008
0.11382552 -0.1312256 0.82700002 4287863464
0.11592996 -0.13042125 0.82650006 4288257967
0.11788975 -0.12946175 0.82500005 4288323763
0.11672553 -0.12832558 0.82700002 4288126633
0.11846718 -0.1271532 0.82566673 4288193457
0.12078276 -0.12656876 0.82500005 4287799728
0.17213351 -0.12656876 0.82500005 4287996599
0.11962555 -0.12470058 0.82700002 4287930284
0.12107556 -0.12470058 0.82700002 4288062127
0.16948159 -0.12464008 0.82500005 4288128183
0.17213351 -0.12439901 0.82500005 4288456890
0.1697551 -0.12194463 0.82633334 4288324545
0.17213351 -0.12150601 0.82500005 4288193717
0.13090825 -0.11788975 0.82500005 4287665569
0.13307801 -0.11933625 0.82500005 4288653490
0.13597101 -0.11788975 0.82500005 4288587187
0.13886401 -0.11788975 0.82500005 4288587964
0.1697551 -0.11856245 0.82633334 4287928502
0.17141025 -0.118613 0.82500005 4287862700
0.13090825 -0.11644325 0.82500005 4288060838
0.13597101 -0.11572 0.82500005 4288719282
0.13894859 -0.11578969 0.82550007 4288785594
0.14270936 -0.11566477 0.82633334 4288654521
0.14548956 -0.11508968 0.82566673 4287997617
0.17141025 -0.11644325 0.82500005 4286349189
0.13331909 -0.11306808 0.82500005 4287796900
0.13597101 -0.112827 0.82500005 4287862946
0.13911691 -0.1130317 0.8265 4288586156
0.14185898 -0.11334219 0.82699996 4288784052
0.13630062 -0.11092551 0.82700002 4287533476
0.13920063 -0.11092551 0.82700002 4287665061
0.10537972 -0.16933431 0.82900006 4286744717
0.10537972 -0.16788079 0.82900006 4286352012
0.10344171 -0.15140764 0.82900006 4286812562
0.1039262 -0.14825836 0.82900006 4287141527
0.10610647 -0.14825836 0.82900006 4287272345
0.10610647 -0.14607809 0.82900006 4287731880
0.11192053 -0.13299648 0.82900006 4287996076
0.11216278 -0.13105845 0.82900006 4287930535
0.11410081 -0.13008945 0.82900006 4287929761
0.11264729 -0.12863594 0.82900006 4287733413
0.11506981 -0.12815143 0.82900006 4287601053
0.11700783 -0.12718242 0.82900006 4287667114
0.11773458 -0.12572891 0.82900006 4287930288
0.10150661 -0.16942111 0.83300006 4286349447
0.1036974 -0.16942111 0.83300006 4286613386
0.10150661 -0.16650005 0.83300006 4286941586
0.1036974 -0.16650006 0.83300006 4287204750
0.10563394 -0.16610029 0.83100003 4287073678
0.1036974 -0.16357899 0.83300006 4286941841
0.10636246 -0.14497349 0.83100003 4287928228
0.10953951 -0.14313161 0.83300006 4287535785
0.11026976 -0.13948029 0.833 4287602087
0.11026977 -0.13582899 0.83300006 4287602856
0.11146203 -0.13768838 0.83100003 4287799467
0.11026977 -0.13290793 0.83300006 4287470243
0.11026977 -0.12998688 0.83300006 4287996074
0.11159617 -0.12982994 0.83200002 4287930535
0.11246055 -0.12779608 0.83300006 4287799467
0.11504643 -0.12672013 0.83233339 4287864243
0.11874713 -0.12384669 0.83100003 4287864751
0.12093266 -0.12311819 0.83100003 4287996330
0.11903293 -0.12195398 0.83300006 4287469732
0.12122372 -0.12195398 0.83300006 4287534498
0.10028628 -0.16982786 0.83500004 4286086531
0.10028628 -0.16763182 0.83500004 4286152076
0.098822251 -0.16397174 0.83500004 4286481029
0.10028628 -0.16397174 0.83500004 4286743693
0.10028628 -0.16104367 0.83500004 4287073430
0.10760645 -0.14420728 0.83500004 4287863197
0.10760645 -0.14201124 0.83500004 4287928993
0.10907049 -0.14127922 0.83500004 4287601573
0.10760645 -0.13908316 0.83500004 4287929508
0.10907049 -0.13908316 0.83500004 4287404708
0.10760645 -0.1361551 0.83500004 4287732645
0.10907049 -0.1361551 0.83500004 4287273891
0.10687443 -0.13322704 0.83500004 4287929254
0.10907049 -0.13322704 0.83500004 4287601573
0.10760645 -0.13029897 0.83500004 4287995034
0.10907049 -0.13029897 0.83500004 4287930281
0.10760645 -0.12737089 0.83500004 4287337089
0.1098025 -0.12737089 0.83500004 4288060328
0.11273056 -0.12663887 0.83500004 4287996079
0.11273056 -0.12517485 0.83500004 4287863462
0.11565863 -0.12517485 0.83500004 4287994802
0.11785469 -0.12517485 0.83500004 4287075749
0.15884762 -0.11053452 0.83500004 4287272358
0.16323972 -0.11053452 0.83500004 4286089352
0.10052648 -0.16656579 0.83700001 4286743947
0.099058948 -0.16216317 0.83700001 4286744449
0.099058948 -0.15996185 0.83700001 4286744198
0.10639665 -0.14455269 0.83700001 4287665819
0.10639665 -0.14235137 0.83700001 4287797407
0.10380381 -0.13963003 0.83739996 4287599526
0.10639665 -0.13941631 0.83700001 4287863971
0.10431895 -0.13664427 0.83800006 4287928483
0.10639665 -0.13648123 0.83700001 4287601058
0.10431895 -0.13370569 0.838 4287533452
0.10607579 -0.13106371 0.83833337 4287863190
0.10639665 -0.12767598 0.83700001 4286152815
0.10725753 -0.12562457 0.83800006 4286084972
0.10972903 -0.12471266 0.83780003 4286743933
0.11300057 -0.12400713 0.83700001 4287730594
0.11593565 -0.12400713 0.83700001 4288191408
0.11813696 -0.12400713 0.83700001 4287535529
0.11246713 -0.12239143 0.83850002 4286939767
0.11566056 -0.12183265 0.83819997 4287994262
0.11881434 -0.12175526 0.83833337 4287731875
0.12180582 -0.12107204 0.83700001 4287665830
0.10812193 -0.11915478 0.83900005 4286349167
0.11621268 -0.1198903 0.83900005 4287269766
0.1198903 -0.11915478 0.83900005 4287993492
0.12180582 -0.11887074 0.83700001 4287535014
0.12209687 -0.1169482 0.83900005 4286878097
0.10026963 -0.14081983 0.84100002 4287598225
0.10248145 -0.13934529 0.84100002 4287861928
0.10248145 -0.13713345 0.84100002 4287664265
0.10248145 -0.13418436 0.84100002 4286149997
0.10395601 -0.13197252 0.84100002 4285164390
0.10543056 -0.1297607 0.84100002 4286678661
0.10543056 -0.12681159 0.84100002 4285032040
0.10321873 -0.12386248 0.84100002 4286083179
0.10616784 -0.12386248 0.84100002 4285820009
0.10911694 -0.1231252 0.84100002 4285754211
0.10616784 -0.12165064 0.84100002 4286018150
0.1093627 -0.12115913 0.84100002 4286216301
0.11182029 -0.12066761 0.84100002 4285559656
0.11427788 -0.1201761 0.84100002 4286350447
0.11870154 -0.1201761 0.84100002 4288387743
0.11206605 -0.11796427 0.84100002 4286150513
0.11501516 -0.11870154 0.84100002 4286084718
0.11796427 -0.11870154 0.84100002 4287203458
0.1201761 -0.117227 0.84100002 4287401100
0.12091337 -0.11501516 0.84100002 4285426280
0.12386248 -0.11501516 0.84100002 4286217860
0.12386248 -0.11206605 0.84100002 4286544767
0.12681159 -0.11206605 0.84100002 4286808439
0.13049798 -0.11206605 0.84100002 4287926163
0.14376895 -0.10837967 0.84100002 4287007385
0.1452435 -0.10837967 0.84100002 4286744982
0.14671806 -0.10690511 0.84100002 4285295976
0.1481926 -0.10690511 0.84100002 4285494634
0.10000575 -0.15334216 0.84500003 4287333778
0.10074653 -0.1511198 0.84500003 4287007382
0.10148732 -0.13926727 0.84500003 4286480006
0.10099346 -0.13605721 0.84500003 4284308812
0.10074653 -0.133341 0.84500003 4284966238
0.10272517 -0.13228637 0.84300005 4285295206
0.10050808 -0.13006929 0.84300005 4285557612
0.1034642 -0.13006929 0.84300005 4285624690
0.1034642 -0.12711316 0.84300005 4285821296
0.11528868 -0.11750577 0.84300005 4286478962
0.1182448 -0.11750577 0.84300005 4286873726
0.11307159 -0.11602771 0.84300005 4286740342
0.11528867 -0.11528868 0.84300005 4286937722
0.1182448 -0.11528867 0.84300005 4286346095
0.13598153 -0.11233257 0.84300005 4287467937
0.13926727 -0.11185828 0.84500003 4287271075
0.14148961 -0.11185828 0.84500003 4287205281
0.13598153 -0.10937644 0.84300005 4287070856
0.13918529 -0.10957149 0.84450001 4287269273
0.14223039 -0.10963593 0.84500003 4287270302
0.13893765 -0.10642032 0.84300005 4286280050
0.14223039 -0.1066728 0.84500003 4285755509
0.1448499 -0.10642032 0.84300005 4285624177
0.14780599 -0.10568129 0.84300005 4285492068
0.14197835 -0.103526 0.84350002 4286477432
0.1448499 -0.1034642 0.84300005 4286674553
0.14780599 -0.1034642 0.84300005 4286148715
0.098014846 -0.13959689 0.84700006 4285360996
0.10024245 -0.13959689 0.84700006 4285427048
0.098014846 -0.13736929 0.84700006 4285888096
0.10024245 -0.13736929 0.84700006 4284441153
0.097936824 -0.15488192 0.85020006 4286413953
0.10047915 -0.1555566 0.84900004 4287268242
0.099223755 -0.15144679 0.85100001 4286875537
0.099223755 -0.14920866 0.85100001 4286809224
0.097250208 -0.14580107 0.84940004 4285163353
0.099223755 -0.14697054 0.85100001 4286084990
0.19901092 -0.20153923 0.72066671 4291223024
0.20001327 -0.20064622 0.72200006 4290763245
0.20289573 -0.19973622 0.72100002 4291156713
0.20570984 -0.19811441 0.72200006 4291025139
0.20640239 -0.1975656 0.72000003 4290893553
0.2240655 -0.19051896 0.72200006 4283988336
0.22659731 -0.18798715 0.72200006 4282406744
0.19947672 -0.20011145 0.72350001 4290960365
0.20219177 -0.19965646 0.72300005 4290894314
0.21072173 -0.19612436 0.72400004 4287738567
0.22330832 -0.19028722 0.72433335 4284180838
0.22500965 -0.18951517 0.72300005 4284576879
0.22563207 -0.18876825 0.72500002 4284968821
0.17040296 -0.21124862 0.72800004 4286157457
0.17040296 -0.20997219 0.72800004 4287537065
0.20217425 -0.19898537 0.72750002 4290302949
0.20536354 -0.19898537 0.72750002 4291091435
0.20777176 -0.19821171 0.72700006 4290368494
0.19393738 -0.19308116 0.73333335 4283061078
0.1690494 -0.20518209 0.73600006 4283396491
0.18647051 -0.1955037 0.73600006 4282878648
0.18969664 -0.19421323 0.73600006 4282277750
0.21091548 -0.18956514 0.73800004 4283061844
0.20860985 -0.18852629 0.73900002 4283263861
0.16666631 -0.20567799 0.74166673 4281621868
0.16868208 -0.20506023 0.741 4281426549
0.16717508 -0.20360233 0.74200004 4281359474
0.16905057 -0.20220987 0.74166673 4282282127
0.20541528 -0.18981369 0.74150002 4284061372
0.16110328 -0.20936903 0.74400002 4282927680
0.16306001 -0.20676008 0.74400002 4281486158
0.16589075 -0.20507863 0.745 4280701799
0.16719699 -0.20246616 0.745 4281426561
0.18491356 -0.19057681 0.74533337 4284911282
0.18735945 -0.19084156 0.74466664 4282866799
0.18139899 -0.18925743 0.74700004 4284719571
0.18467334 -0.18925743 0.74700004 4284319395
0.18074411 -0.18794769 0.74700004 4284852692
0.18385454 -0.18845089 0.74900001 4284978612
0.17882632 -0.18699615 0.75160003 4285443540
0.18195392 -0.18722793 0.75200003 4285768127
0.18459094 -0.18788719 0.75200003 4283067019
0.17839395 -0.18445909 0.75200003 4288329162
0.18195392 -0.18525019 0.75200003 4285500304
0.18393168 -0.18525019 0.75200003 4282472017
0.18794622 -0.19014956 0.75400001 4283130478
0.18508187 -0.18706489 0.75400001 4283127910
0.18772589 -0.18838689 0.75400001 4283325288
0.17547728 -0.18499859 0.75420004 4288527574
0.18045481 -0.18574287 0.75400001 4287541440
0.17586371 -0.18382736 0.75700003 4289315537
0.17851825 -0.18382736 0.75700003 4288721866
0.17499758 -0.18431303 0.75900006 4289512411
0.17212299 -0.18213013 0.76100004 4290301412
0.17502123 -0.18370549 0.76200002 4289578460
0.17836134 -0.18370549 0.76200002 4289248208
0.17257532 -0.18060122 0.76300007 4290104028
0.17534666 -0.18124068 0.76400006 4289840602
0.17661151 -0.18332678 0.76600003 4289906906
0.1712393 -0.18064068 0.76600003 4290564059
0.17213525 -0.17885928 0.76700002 4290169048
0.17460072 -0.17908341 0.76700002 4289905619
0.16707514 -0.17208968 0.78000003 4290563033
0.1696911 -0.17242762 0.78049999 4290037202
0.1697998 -0.1704845 0.78100002 4289642452
0.16632734 -0.16907656 0.78400004 4289907167
0.16817535 -0.16954821 0.78300005 4290300128
0.16765462 -0.1690345 0.78700006 4290103517
0.16627474 -0.16696468 0.78700006 4290760930
0.16992517 -0.16900294 0.78900003 4289840859
0.16918738 -0.16614392 0.78900003 4289840090
0.16702849 -0.1603518 0.79320014 4289773269
0.15878625 -0.1263233 0.80500007 4288721603
0.13408618 -0.12491186 0.80500007 4288522693
0.15525767 -0.12350042 0.80500007 4288522423
0.15808055 -0.12420614 0.80500007 4288128437
0.16090341 -0.12491186 0.80500007 4288128437
0.12663713 -0.12946701 0.80700004 4288258751
0.12836942 -0.12836942 0.80900002 4288587707
0.13017449 -0.12734461 0.80700004 4288588217
0.13229689 -0.12663713 0.80700004 4288325813
0.1648405 -0.12663713 0.80700004 4287996597
0.13229689 -0.12522219 0.80700004 4288456379
0.16413304 -0.12522219 0.80700004 4288720058
0.12726483 -0.12868679 0.81100005 4288455616
0.13010873 -0.12726483 0.81100005 4288521659
0.13153069 -0.12584287 0.81100005 4288259257
0.13437459 -0.12442091 0.81100005 4288325312
0.16068073 -0.12442091 0.81100005 4287866548
0.16281366 -0.12442091 0.81100005 4287800501
0.13650753 -0.12299897 0.81100005 4288390845
0.15570389 -0.12299897 0.81100005 4288456627
0.15712585 -0.12299897 0.81100005 4288325561
0.1261532 -0.12900412 0.81300002 4288323774
0.12789252 -0.12789252 0.81500006 4288192958
0.12947927 -0.12662835 0.81300002 4288390332
0.17034248 -0.12686594 0.81300002 4288127416
0.17258717 -0.12694353 0.81350005 4288586692
0.17533158 -0.12686594 0.81300002 4288783800
0.13344358 -0.12416756 0.81400001 4288127927
0.1546624 -0.12330229 0.81300002 4288390834
0.1589388 -0.12330229 0.81300002 4288259768
0.16107698 -0.12330229 0.81300002 4288195004
0.17361945 -0.12503459 0.81500006 4288456900
0.17554636 -0.12488117 0.81400001 4288390589
0.17746978 -0.12472776 0.81300002 4288847531
0.13661745 -0.12148514 0.81420004 4288653501
0.13898234 -0.12045137 0.81300002 4288982722
0.1546624 -0.12187684 0.81300002 4288391609
0.1568006 -0.12187684 0.81300002 4288326075
