# .PCD v0.7 - Point Cloud Data file format
VERSION 0.7
FIELDS x y z rgba
SIZE 4 4 4 4
TYPE F F F U
COUNT 1 1 1 1
WIDTH 504
HEIGHT 1
VIEWPOINT 0 0 0 1 0 0 0
POINTS 504
DATA ascii
0.15978038 -0.18529664 0.69300002 4286822900
0.16093321 -0.19336462 0.69800001 4287211469
0.16094705 -0.19052124 0.69700003 4284977585
0.16701639 -0.2033779 0.70300001 4288650671
0.1672281 -0.20748727 0.70650005 4289834692
0.16896698 -0.20981614 0.70600003 4289178540
0.16660917 -0.20562962 0.70650005 4289899971
0.16587235 -0.20362689 0.70600003 4289572538
0.16906253 -0.21443529 0.70899999 4289505465
0.16820426 -0.2110312 0.708 4289965756
0.16660465 -0.20851517 0.71000004 4290031811
0.16820426 -0.20916916 0.708 4290228680
0.168917 -0.21753518 0.71100003 4289111219
0.16767038 -0.21379532 0.71100003 4289768379
0.16852951 -0.2153444 0.71200001 4289768379
0.16725485 -0.21130209 0.71100003 4290097343
0.16986732 -0.22690852 0.71500003 4288848818
0.16837786 -0.22033089 0.71400005 4288980145
0.16759412 -0.21655419 0.71600002 4289374138
0.16837786 -0.21782711 0.71400005 4289110963
0.16712599 -0.21407148 0.71400005 4289834684
0.16660114 -0.21133453 0.7153334 4289768893
0.16939962 -0.22974233 0.71700001 4288849338
0.16908532 -0.22628519 0.71700001 4288849071
0.16908532 -0.22377092 0.71700001 4288783788
0.16829632 -0.21998285 0.71900004 4289111219
0.16729985 -0.21725875 0.71833342 4289242551
0.16680336 -0.21401274 0.71800005 4289900216
0.16577505 -0.21178864 0.71900004 4289967032
0.16709968 -0.22216663 0.72200006 4288980659
0.16899855 -0.22279958 0.72200006 4288914865
0.16709968 -0.22026777 0.72200006 4289177525
0.16646673 -0.21773596 0.72200006 4288915385
0.16646673 -0.21520415 0.72200006 4290031806
0.16709968 -0.21077347 0.72200006 4289637307
0.16709968 -0.20950757 0.72200006 4289506744
0.16899855 -0.20950757 0.72200006 4289900732
0.16684984 -0.22521712 0.72366667 4289046194
0.16946669 -0.22595644 0.72400004 4288848812
0.16638039 -0.22342509 0.72300005 4289046709
0.16461608 -0.22054742 0.72500008 4289309114
0.16542964 -0.22057283 0.72300005 4289112245
0.16461608 -0.2173695 0.72500002 4289506749
0.16542964 -0.21740369 0.72300005 4289243835
0.16461608 -0.21546274 0.72500002 4290031289
0.16542964 -0.21423455 0.72300005 4289966264
0.16461608 -0.21101366 0.72500002 4289967040
0.16542964 -0.21169922 0.72300005 4289769658
0.16416198 -0.20789625 0.72300005 4289310922
0.1665162 -0.20816788 0.72300005 4289244599
0.16923262 -0.20726241 0.72300005 4289703869
0.16507021 -0.22434251 0.72700006 4289374128
0.16387063 -0.21743087 0.72733337 4289769405
0.16402082 -0.21380147 0.72800004 4290230978
0.16507021 -0.21414512 0.72700006 4289901499
0.16352026 -0.21157737 0.72766668 4290361798
0.16326997 -0.20919019 0.72750002 4289574859
0.16447143 -0.22590822 0.73000002 4287202699
0.16356736 -0.22374527 0.73025 4288189853
0.16191156 -0.211189 0.73000002 4290165441
0.16341504 -0.2087013 0.73100001 4287209922
0.1619519 -0.20518209 0.73600006 4284852433
0.15592217 -0.21091548 0.73800004 4284972957
0.15872489 -0.20860985 0.73900002 4284126410
0.16045104 -0.20768058 0.73800004 4284982227
0.16045104 -0.20573965 0.73800004 4284720336
0.16109802 -0.20315173 0.73800004 4284918996
0.16277048 -0.20224942 0.73825008 4285050329
0.1637964 -0.19940484 0.7385 4285314028
0.15546632 -0.21010719 0.74200004 4284907905
0.15546632 -0.20880622 0.74200004 4284778384
0.15746267 -0.20843311 0.7416001 4284255417
0.15915446 -0.20722559 0.74100006 4284390093
0.15991145 -0.20541573 0.74150002 4284917717
0.16094089 -0.2022332 0.74175006 4284984801
0.16186205 -0.20021445 0.74150002 4284920808
0.16363247 -0.19874239 0.74166673 4285775602
0.15877837 -0.20582263 0.74533337 4284982491
0.15979879 -0.20480335 0.74400002 4284787160
0.15892039 -0.20273793 0.74600005 4284918232
0.16001359 -0.2024653 0.745 4284721892
0.16083993 -0.19951496 0.74520004 4285446898
0.16240777 -0.19893318 0.74400002 4285710318
0.15561973 -0.21077608 0.74900001 4284186247
0.15561973 -0.20880622 0.74900001 4283335063
0.15695052 -0.20803036 0.74700004 4284454068
0.15561973 -0.20552309 0.74900001 4283339707
0.15720543 -0.20545506 0.74779999 4284391631
0.1575519 -0.20241654 0.74820006 4284788442
0.15913342 -0.2010451 0.74700004 4284724454
0.15451251 -0.2084275 0.75000006 4285168269
0.15451251 -0.20579751 0.75000006 4285629859
0.15533656 -0.21350515 0.75400001 4285561465
0.15225185 -0.21174246 0.75400001 4287203967
0.15445523 -0.21174246 0.75400001 4285694599
0.15269253 -0.20953912 0.75400001 4287268242
0.15401456 -0.20953912 0.75400001 4286023059
0.15289505 -0.19326994 0.75500005 4293652984
0.15488946 -0.19351295 0.75440007 4293784574
0.15731958 -0.19235294 0.75400001 4294376447
0.15930261 -0.19235294 0.75400001 4294442239
0.1555426 -0.1912843 0.75500005 4294967295
0.15752824 -0.19062242 0.75500005 4294967295
0.16017577 -0.18863676 0.75500005 4294967295
0.15462735 -0.19112736 0.75700003 4294573310
0.15794553 -0.18913645 0.75700003 4294967295
0.15636666 -0.18963616 0.75900006 4294967295
0.15767552 -0.1876768 0.76050007 4294967295
0.15981266 -0.18753567 0.76020008 4294967295
0.15811297 -0.18413156 0.76100004 4294967295
0.15944727 -0.18413156 0.76100004 4294967295
0.15297657 -0.19105372 0.76200002 4294507519
0.15460221 -0.19002306 0.76233339 4294835967
0.15471764 -0.18820632 0.76400006 4294967295
0.15652095 -0.18729107 0.76300001 4294967295
0.15471764 -0.18485746 0.76400006 4294967295
0.15652095 -0.18461549 0.76300007 4294967295
0.15712088 -0.18252902 0.7626667 4294967295
0.15196314 -0.19297975 0.76700002 4293784057
0.15196314 -0.19163494 0.76700002 4294310398
0.15455151 -0.18815064 0.7665 4294967295
0.15723981 -0.1814301 0.7665 4294967295
0.15033694 -0.19280881 0.76900005 4293783548
0.15101109 -0.19078635 0.76900005 4294047231
0.15303357 -0.19011219 0.76900005 4294967295
0.15370773 -0.18741556 0.76900005 4294967295
0.15505603 -0.18471894 0.76900005 4294967295
0.15573019 -0.1820223 0.76900005 4294967295
0.15842682 -0.17865153 0.76900005 4294967295
0.14937611 -0.19331026 0.77100003 4293454587
0.14950527 -0.19009377 0.77166671 4293915132
0.15140384 -0.18993071 0.77100003 4294507007
0.1497636 -0.18771274 0.77300006 4294507519
0.15159993 -0.18746872 0.77200007 4294901503
0.15430737 -0.18476188 0.77200001 4294967295
0.15518491 -0.18229143 0.77300006 4294967295
0.15701364 -0.17867169 0.77200007 4294967295
0.14811195 -0.19227491 0.77500004 4293256943
0.14827472 -0.1903816 0.77466673 4293652472
0.14898424 -0.18776096 0.77600002 4294507007
0.15034482 -0.18708067 0.77600002 4294245119
0.15202744 -0.18510699 0.7753334 4294967295
0.15354729 -0.18412191 0.77500004 4294967295
0.15466636 -0.18152127 0.77550006 4294967295
0.15742128 -0.1811702 0.77400005 4294967295
0.15500203 -0.17836836 0.77480012 4294967295
0.15073232 -0.18619874 0.77800006 4294967295
0.1534605 -0.18347056 0.77800006 4294967295
0.1534605 -0.18142441 0.77800006 4294967295
0.14857483 -0.19102478 0.78100002 4293257974
0.1497522 -0.1866774 0.78000003 4294967295
0.14984819 -0.18474391 0.78050005 4294967295
0.15164024 -0.18447667 0.78033334 4294967295
0.14758246 -0.19288683 0.78300005 4293257722
0.14804007 -0.19059874 0.78300005 4293586426
0.14833172 -0.18747459 0.78333336 4294178300
0.13677403 -0.18980886 0.79600006 4292007391
0.13501894 -0.19028576 0.79800004 4291941345
0.13361979 -0.18818702 0.79800004 4292203748
0.13501894 -0.18818702 0.79800004 4292335839
0.10723416 -0.17000699 0.81366664 4291875551
0.10477131 -0.1568006 0.81300002 4292533219
0.10619677 -0.15822606 0.81300002 4292599010
0.10477131 -0.15394968 0.81300002 4292269796
0.10619677 -0.15323694 0.81300002 4291875553
0.1069095 -0.15109876 0.81300002 4292402666
0.11294184 -0.13719338 0.81366664 4293060079
0.11531878 -0.13719338 0.81366664 4293191927
0.10528679 -0.17189679 0.81700003 4292005596
0.10600303 -0.1697481 0.81700003 4291874781
0.10528679 -0.15972078 0.81700003 4292204771
0.10436279 -0.18137532 0.82100004 4291348173
0.10436279 -0.17849636 0.82100004 4291743440
0.10580227 -0.17849636 0.82100004 4291677904
0.10410856 -0.17447157 0.81900007 4292006104
0.10339057 -0.17231759 0.81900007 4291742169
0.10410856 -0.17016363 0.81900007 4291874524
0.10351592 -0.16605821 0.82000005 4291940316
0.10626253 -0.16657367 0.81900007 4292137436
0.10379821 -0.16420756 0.82033342 4291874525
0.10639227 -0.16390073 0.82000005 4292137951
0.10436279 -0.16050276 0.82100004 4292007390
0.10652201 -0.16194224 0.82100004 4292204257
0.10868125 -0.16194224 0.82100004 4292533220
0.10436279 -0.15690404 0.82100004 4292072416
0.10436279 -0.15474482 0.82100004 4291743451
0.10580227 -0.15330532 0.82100004 4292270314
0.10580227 -0.15186584 0.82100004 4292271081
0.11272443 -0.13570012 0.81900007 4293388527
0.11416041 -0.13570012 0.81900007 4293717492
0.11272443 -0.13426414 0.81900007 4293453554
0.13426414 -0.12134031 0.81900007 4294967295
0.13570012 -0.12134031 0.81900007 4294967295
0.10461701 -0.17676668 0.82300001 4292006356
0.10606001 -0.17676668 0.82300001 4291875026
0.10317402 -0.16377974 0.82300001 4291939549
0.10606001 -0.15079281 0.82300001 4292467940
0.1067815 -0.14862831 0.82300001 4292401637
0.11183198 -0.13636287 0.82300001 4292993771
0.11183198 -0.13491987 0.82300001 4293125100
0.10262523 -0.16347758 0.82633334 4291808480
0.10342475 -0.1605615 0.82500005 4292270311
0.10355011 -0.15785873 0.82600003 4292006624
0.10487125 -0.15115924 0.82500005 4292073182
0.10487125 -0.14971276 0.82500005 4292401636
0.10600624 -0.14802255 0.82633334 4292269794
0.109934 -0.1460965 0.82500005 4292336359
0.11310051 -0.13847563 0.82700002 4293322738
0.11334219 -0.13364227 0.82699996 4293322226
0.11572 -0.13235475 0.82500005 4293388278
0.11817554 -0.1305006 0.82700002 4294112764
0.10247269 -0.16206674 0.82900006 4291743968
0.10247269 -0.15988646 0.82900006 4291809503
0.1039262 -0.1562527 0.82900006 4291875038
0.11119377 -0.13663025 0.82900006 4292993771
0.11264729 -0.13299648 0.82900006 4293322225
0.11482756 -0.13081621 0.82900006 4293519860
0.11700783 -0.13081621 0.82900006 4293454836
0.10150661 -0.16576979 0.83300006 4292070354
0.10138474 -0.16338348 0.83200002 4291939540
0.10126289 -0.1602722 0.83100003 4291611865
0.10576107 -0.15463085 0.83200002 4291678432
0.11538161 -0.12414476 0.83300006 4293518838
0.10370237 -0.13883916 0.83500004 4292202973
0.097824603 -0.14857572 0.83900005 4291544271
0.097824603 -0.14563362 0.83900005 4291544016
0.099548131 -0.14504187 0.83700007 4292070361
0.099911064 -0.14252144 0.838 4292004565
0.09556105 -0.15778685 0.84500003 4290822088
0.16662337 -0.17817694 0.6936667 4286625492
0.16921754 -0.17793162 0.69350004 4286560228
0.17278749 -0.17826314 0.69400001 4286757069
0.16670343 -0.17582951 0.69400001 4285694845
0.1726753 -0.17755656 0.69600004 4287410882
0.16692084 -0.19862285 0.73800004 4284391114
0.16587409 -0.19839844 0.74200004 4284787429
0.16327918 -0.19724035 0.745 4286105083
0.16523853 -0.19724035 0.745 4286038013
0.16699186 -0.19842562 0.74700004 4284062938
0.16932611 -0.19903928 0.74766666 4284460760
0.16371751 -0.19580613 0.74700004 4286104319
0.16688797 -0.19606738 0.74800003 4283542741
0.16875219 -0.196987 0.74900001 4281313241
0.16344419 -0.19328023 0.74800003 4286958328
0.1659039 -0.19410014 0.74800003 4282101448
0.16093439 -0.19123314 0.75133342 4294639359
0.16298519 -0.19106306 0.75066668 4291814898
0.16040246 -0.19028804 0.75419998 4294967295
0.1604493 -0.17797737 0.76900005 4294967295
0.16331688 -0.17890313 0.77300006 4294639615
0.15762204 -0.17656505 0.77166671 4294967295
0.16086659 -0.17641251 0.77100003 4294967295
0.1639507 -0.17755656 0.77600002 4294967295
0.15772593 -0.17540215 0.77550006 4294967295
0.16004661 -0.17543972 0.77466673 4294967295
0.1632704 -0.17619598 0.77600002 4294967295
0.16369121 -0.175286 0.77800006 4294967295
0.16028097 -0.1739219 0.77800006 4294967295
0.1630863 -0.17471091 0.78000003 4294967295
0.16000919 -0.17231762 0.78000003 4294967295
0.16295305 -0.1732232 0.78100002 4294967295
0.16500707 -0.1732232 0.78100002 4294967295
0.15661563 -0.16627474 0.78700006 4294967295
0.15454581 -0.16420493 0.78700006 4294967295
0.15661563 -0.16489488 0.78700006 4294967295
0.15127954 -0.16318327 0.78939998 4294967295
0.15503718 -0.16265017 0.7895 4294967295
0.15097953 -0.16136803 0.79000002 4294967295
0.15444236 -0.16136803 0.79000002 4294967295
0.1641383 -0.16136803 0.79000002 4294967295
0.17106396 -0.1599829 0.79000002 4294967295
0.15800865 -0.16357724 0.79399997 4294967295
0.16009687 -0.16357724 0.79400009 4294967295
0.15172119 -0.16005887 0.79266673 4294967295
0.15433365 -0.15989435 0.7930001 4294967295
0.15661649 -0.16079293 0.79400003 4294967295
0.17219137 -0.16177656 0.79200006 4294967295
0.15138513 -0.15833886 0.79333335 4294967295
0.15794145 -0.16026752 0.79600006 4294967295
0.16050014 -0.16050014 0.79600006 4294967295
0.16329144 -0.16050014 0.79600006 4294967295
0.16585015 -0.16073275 0.79600006 4294967295
0.17026971 -0.1598023 0.79600006 4294704895
0.1514284 -0.15701102 0.79600006 4294967295
0.15491752 -0.15770884 0.79600006 4294967295
0.15770884 -0.15840666 0.79600006 4294967295
0.16050014 -0.15840666 0.79600006 4294967295
0.16329145 -0.15840666 0.79600006 4294967295
0.1514284 -0.15491752 0.79600006 4294967295
0.16719963 -0.16020381 0.79800004 4294967295
0.16948889 -0.15967022 0.80000001 4294639615
0.17182666 -0.15920267 0.80000001 4294967295
0.15460718 -0.15600634 0.79800004 4294967295
0.15768532 -0.15656599 0.79800004 4294967295
0.16090339 -0.15670592 0.79800004 4294967295
0.16370171 -0.15670592 0.79800004 4294967295
0.16656987 -0.15747066 0.79833341 4294967295
0.16902132 -0.15779999 0.80000001 4294967295
0.15414079 -0.15367441 0.79800004 4294967295
0.1574055 -0.1539076 0.79800004 4294967295
0.16090339 -0.1539076 0.79800004 4294967295
0.16387822 -0.15452711 0.80000001 4294967295
0.162008 -0.15218933 0.80000001 4294967295
0.16341066 -0.14096799 0.80000001 4294967295
0.16623206 -0.15450871 0.80233335 4294967295
0.15754072 -0.13925433 0.80225003 4294967295
0.1631161 -0.13921115 0.80200005 4294967295
0.16613534 -0.13938475 0.80300003 4294967295
0.15759005 -0.13648385 0.80250001 4294967295
0.1612076 -0.13727285 0.80300003 4294967295
0.1633195 -0.13727285 0.80300003 4294967295
0.15467907 -0.13358647 0.80200005 4294901759
0.15688607 -0.13366932 0.80250001 4294967295
0.1519614 -0.13085522 0.80250001 4294967295
0.15467907 -0.13077413 0.80200005 4294967295
0.15678833 -0.13007104 0.80200005 4294967295
0.13569573 -0.12866487 0.80200005 4294639615
0.14914775 -0.12874508 0.80250001 4294967295
0.15205607 -0.12882529 0.80300003 4294967295
0.15467907 -0.12866487 0.80200005 4294967295
0.15678833 -0.12866487 0.80200005 4294967295
0.16066818 -0.13667379 0.80500007 4294967295
0.16372627 -0.13620332 0.80500007 4294967295
0.16654915 -0.13690904 0.80500007 4294967295
0.16937201 -0.13690904 0.80500007 4294967295
0.15878625 -0.13408618 0.80500007 4294901759
0.16090341 -0.1347919 0.80500007 4294967295
0.16372627 -0.13408618 0.80500007 4294836223
0.16654915 -0.13408618 0.80500007 4294901759
0.16866629 -0.13408618 0.80500007 4294967295
0.15843341 -0.13091046 0.80500007 4294967295
0.16076227 -0.13083988 0.80500013 4294967295
0.16372627 -0.13126332 0.80500007 4294967295
0.16654915 -0.13126332 0.80500007 4294967295
0.16913676 -0.13102807 0.80500007 4294967295
0.17148916 -0.1305576 0.80500007 4294967295
0.15525767 -0.12773472 0.80500007 4294967295
0.17050028 -0.13512677 0.80700004 4294967295
0.16059569 -0.13371183 0.80700004 4294967295
0.16201063 -0.13371183 0.80700004 4294967295
0.17050028 -0.13300437 0.80700004 4294967295
0.16413304 -0.12946701 0.80700004 4294967295
0.16666748 -0.12978786 0.80900002 4294967295
0.16879514 -0.12978786 0.80900002 4294967295
0.13017449 -0.12663713 0.80700004 4294507519
0.13300437 -0.12734461 0.80700004 4294704895
0.13512677 -0.12734461 0.80700004 4294901759
0.14927617 -0.12805207 0.80700004 4294967295
0.15139857 -0.12805207 0.80700004 4294967295
0.18201002 -0.17205635 0.81100005 4292863992
0.16281366 -0.13010873 0.81100005 4294967295
0.15143804 -0.12726483 0.81100005 4294967295
0.1585478 -0.12868679 0.81100005 4294967295
0.16068073 -0.12868679 0.81100005 4294967295
0.16352464 -0.12868679 0.81100005 4294967295
0.16636854 -0.12868679 0.81100005 4294967295
0.16850148 -0.12868679 0.81100005 4294967295
0.13153069 -0.12513189 0.81100005 4294638847
0.13366362 -0.12513189 0.81100005 4294901503
0.13579655 -0.12513189 0.81100005 4294967295
0.18459706 -0.17248064 0.81300002 4291811561
0.18171692 -0.16742726 0.81500006 4293586939
0.1518115 -0.1261532 0.81300002 4294967295
0.15323694 -0.1261532 0.81300002 4294967295
0.15795271 -0.12713332 0.81380004 4294967295
0.16107698 -0.12686594 0.81300002 4294967295
0.16369031 -0.12710352 0.81300002 4294967295
0.16626948 -0.1270211 0.81400001 4294901759
0.168917 -0.12757868 0.81300002 4294967295
0.13415718 -0.12345396 0.81400001 4294967295
0.13613144 -0.12330229 0.81300002 4294967295
0.15790081 -0.12503459 0.81500006 4294967295
0.16004428 -0.12503459 0.81500006 4294967295
0.16290221 -0.12503459 0.81500006 4294967295
0.13360839 -0.12217665 0.81500006 4294967295
0.13575184 -0.12217665 0.81500006 4294967295
0.11603034 -0.13536873 0.81700003 4293454839
0.11603034 -0.13393626 0.81700003 4293651449
0.17834294 -0.13250378 0.81700003 4294047231
0.15542336 -0.12963884 0.81700003 4294967295
0.15542336 -0.12749013 0.81700003 4294967295
0.15685582 -0.12677389 0.81700003 4294967295
0.15255842 -0.12534142 0.81700003 4294967295
0.15470713 -0.12534142 0.81700003 4294967295
0.15757206 -0.12462518 0.81700003 4294967295
0.16043702 -0.12390894 0.81700003 4294967295
0.16258572 -0.12390894 0.81700003 4294967295
0.16545066 -0.12534142 0.81700003 4294967295
0.16043702 -0.12247647 0.81700003 4294967295
0.114732 -0.13341494 0.81966668 4293716984
0.11703237 -0.13282816 0.81900007 4294177791
0.18093348 -0.13282816 0.81900007 4293059569
0.12379585 -0.13027355 0.82100004 4294112511
0.17830086 -0.13091351 0.81900007 4294309884
0.18093348 -0.13067418 0.81900007 4290689731
0.12379585 -0.12883405 0.82100004 4294112255
0.1514959 -0.12708424 0.81900007 4294967295
0.14814527 -0.12469093 0.81900007 4294967295
0.15120871 -0.12478666 0.81900007 4294967295
0.15508583 -0.12421227 0.81900007 4294967295
0.15723981 -0.12421227 0.81900007 4294967295
0.16462046 -0.12364419 0.82000005 4294967295
0.14812213 -0.12168606 0.81940001 4294967295
0.1514547 -0.12163005 0.81975013 4294901503
0.15473226 -0.12143791 0.8196668 4294244089
0.15746951 -0.12151669 0.82020009 4294046714
0.1601429 -0.12127675 0.82100004 4294572284
0.16318274 -0.12220646 0.82000005 4294967295
0.15186584 -0.11875766 0.82100004 4294967295
0.15402508 -0.11875766 0.82100004 4294967295
0.1561843 -0.11875766 0.82100004 4294967295
0.11904694 -0.1298694 0.82300001 4294112511
0.12097094 -0.13010989 0.82300001 4294309887
0.1298694 -0.1291479 0.82300001 4294178303
0.16089375 -0.12048995 0.82300001 4294638591
0.16233675 -0.12048995 0.82300001 4294506744
0.14862831 -0.11904694 0.82300001 4294967295
0.1512738 -0.11808494 0.82300001 4294967295
0.15440029 -0.11760395 0.82300001 4294967295
0.15752675 -0.11808494 0.82300001 4294967295
0.15993176 -0.11856595 0.82300001 4294967295
0.15440029 -0.11616097 0.82300001 4294967295
0.15656477 -0.11616097 0.82300001 4294967295
0.11890054 -0.1326756 0.82700002 4293981183
0.13235475 -0.12729201 0.82500005 4294967295
0.13557562 -0.12107556 0.82700002 4294967295
0.16417775 -0.12078276 0.82500005 4294967295
0.16655001 -0.12165328 0.82600003 4294967295
0.1480826 -0.11839515 0.82600003 4294967295
0.16128474 -0.11788975 0.82500005 4294967295
0.16375214 -0.11882822 0.8265 4294967295
0.16675076 -0.11962555 0.82700002 4294967295
0.13630062 -0.11600053 0.82700002 4294901759
0.14862569 -0.11672553 0.82700002 4294967295
0.15166841 -0.11603262 0.82620001 4294967295
0.1547755 -0.11499675 0.82500005 4294967295
0.15803757 -0.11557183 0.82566673 4294967295
0.16022573 -0.11600053 0.82700002 4294967295
0.15225071 -0.11310052 0.82700002 4294967295
0.15490904 -0.11334219 0.82699996 4294967295
0.15225071 -0.11092551 0.82700002 4291810540
0.17853989 -0.12815143 0.82900006 4292007655
0.12524439 -0.11943034 0.82900006 4294112509
0.12815143 -0.11797684 0.82900006 4294112767
0.13081621 -0.11773458 0.82900006 4294638847
0.13372324 -0.11846134 0.82900006 4294704639
0.14258966 -0.11817063 0.82900012 4294901759
0.14535134 -0.11773458 0.82900006 4294967295
0.14753161 -0.11700783 0.82900006 4294967295
0.16352026 -0.11700783 0.82900006 4294835710
0.16715404 -0.11773458 0.82900006 4293322479
0.17006107 -0.11918809 0.82900006 4292731110
0.17224133 -0.11918809 0.82900006 4290294971
0.13444999 -0.11555431 0.82900006 4294310143
0.13953727 -0.11555431 0.82900006 4294967295
0.14244431 -0.11555431 0.82900006 4294967295
0.14535134 -0.11555431 0.82900006 4294967295
0.14825836 -0.11555431 0.82900006 4294967295
0.15043864 -0.11555431 0.82900006 4294967295
0.1577062 -0.11410081 0.82900006 4294704639
0.15988646 -0.11410081 0.82900006 4293520382
0.16315687 -0.11519093 0.82900006 4292994550
0.16715404 -0.11555431 0.82900006 4290362564
0.16933431 -0.11555431 0.82900006 4289766304
0.11889003 -0.12107731 0.83200002 4293848307
0.12093266 -0.12020415 0.83100003 4294045694
0.12311819 -0.12020415 0.83100003 4293586174
0.12195398 -0.11903293 0.83300006 4293716210
0.12414476 -0.11903293 0.83300006 4293716989
0.12691242 -0.11743125 0.83200002 4294374655
0.16974282 -0.1172901 0.83100003 4289044405
0.12779608 -0.11611187 0.83300006 4294177529
0.13050674 -0.115926 0.83166671 4294374909
0.13331732 -0.11583308 0.83100003 4294638335
0.14021057 -0.11465134 0.83300006 4294967295
0.14295891 -0.11451371 0.83200002 4294967295
0.145702 -0.11437608 0.83100003 4294967295
0.14861605 -0.11437608 0.83100003 4294967295
0.15080157 -0.11437608 0.83100003 4294967295
0.16391475 -0.11437608 0.83100003 4289638619
0.16537178 -0.11437608 0.83100003 4289441239
0.14094083 -0.11319081 0.83300006 4294967295
0.14295891 -0.11305493 0.83200002 4294967295
0.14587821 -0.11305493 0.83200002 4294901759
0.14897373 -0.11319081 0.83300006 4294967295
0.15116452 -0.11319081 0.83300006 4294967295
0.11565863 -0.12224679 0.83500004 4293387495
0.11785469 -0.12151477 0.83500004 4293848051
0.12078276 -0.11931872 0.83500004 4293716210
0.12444283 -0.11785469 0.83500004 4294176767
0.14786737 -0.11199855 0.83500004 4293979903
0.15079543 -0.11199855 0.83500004 4292796665
0.11593565 -0.12107204 0.83700001 4292727741
0.11930469 -0.11930469 0.83833337 4292397518
0.12180582 -0.11813696 0.83700001 4292596959
0.1247409 -0.11666943 0.83700001 4293847281
0.12767598 -0.11593565 0.83700001 4293518830
0.13061106 -0.11520188 0.83700001 4293913841
0.117227 -0.11870154 0.84100002 4290552484
0.12165064 -0.117227 0.84100002 4291738809
0.1231252 -0.117227 0.84100002 4293975771
0.12705736 -0.11526092 0.84100002 4291543746
0.12902342 -0.11427788 0.84100002 4291477700
0.12637414 -0.11454965 0.84300005 4290886066
